2.060437382673283857e-01,1.834458940631543689e-01,1.657974638744945661e-01,1.566212602318109437e-01,1.580337245667404744e-01,1.709115600326721607e-01,1.950602467127922068e-01,2.293844392156001721e-01,2.720602466578914691e-01,3.207093950352114531e-01,3.725752719797765788e-01,4.247008539058660381e-01,4.741085155426813524e-01,5.179817218546752811e-01,5.538486023493495169e-01,5.797674077725240016e-01,5.945138491910696432e-01,5.977703194631156514e-01,5.903169970957212742e-01,5.742248324900238732e-01,5.530504165738466815e-01,5.306310513527426886e-01,5.068929398885486659e-01,4.816563011794599558e-01,4.556345932477622318e-01,4.300933732284196176e-01,4.065562984630964882e-01,3.865582685996151735e-01,3.714457086968475097e-01,3.622239933350415164e-01,3.594520117315825325e-01,3.631838738621895879e-01,3.729577575875460682e-01,3.878318967853650601e-01,4.064677104878899327e-01,4.272600730248288792e-01,4.485147251717251926e-01,4.686728263037612252e-01,4.865826475549971941e-01,5.018184059830468335e-01,5.150462397391840641e-01,5.277586560162985663e-01,5.399534497247977516e-01,5.511505125959896834e-01,5.609405060308546576e-01,5.690111067275613888e-01,5.751660437149511695e-01,5.793369267919896703e-01,5.815878663731873788e-01,5.821128847399874573e-01,5.812261186981223515e-01,5.793448136409374838e-01,5.769651090186833642e-01,5.746306152137771184e-01,5.728937818220288802e-01,5.722700573398398216e-01,5.731848402573654910e-01,5.759132215576486802e-01,5.805125186217198197e-01,5.867476005396645711e-01,5.940090048276621681e-01,6.015462240585528475e-01,6.094907720766348236e-01,6.181109354619592766e-01,6.275444755768431193e-01,6.378208023801075210e-01,6.488819448528291289e-01,6.606023180355987678e-01,6.728072866772928373e-01,6.852905254953537417e-01,6.978301760475804638e-01,7.102038002154310581e-01,7.222021302988335112e-01,7.336416157225086332e-01,7.443757663538013158e-01,7.543052924320244879e-01,7.633870411093116592e-01,7.716417296029804973e-01,7.791604749594056578e-01,7.861101204294044242e-01,7.927373584551302699e-01,7.998345848862209451e-01,8.093958583540301621e-01,8.221940514337363615e-01,8.376316082282748710e-01,8.542070898041022042e-01,8.699210707963623834e-01,8.826213871834548419e-01,8.902877352310017978e-01,8.912556216052203162e-01,8.843796646556908447e-01,8.691362468675306596e-01,8.456655184829664496e-01,8.147527522923100340e-01,7.777490495943315540e-01,7.364313973260376844e-01,6.928020763618482070e-01,6.488274209821784932e-01,6.061159295114142420e-01,5.655357261252957901e-01
1.962106759252716381e-01,1.716182793312382715e-01,1.520621337488422264e-01,1.411484343156238219e-01,1.410670725656037738e-01,1.527527560706836707e-01,1.760493980342600073e-01,2.098777768370508889e-01,2.524064655351379582e-01,3.012260313102200771e-01,3.535265048720818148e-01,4.062781198132756066e-01,4.564153219160159147e-01,5.010240484112885584e-01,5.375322771901733798e-01,5.639038459673808568e-01,5.788355413969992203e-01,5.819574581404604041e-01,5.740366278867127248e-01,5.571839183246178884e-01,5.350642020675484556e-01,5.116972679219115028e-01,4.871842379471709172e-01,4.614453856593626058e-01,4.352295644177294753e-01,4.097878082647513076e-01,3.865927060070575294e-01,3.671035485372210472e-01,3.525772493964329235e-01,3.439250385780586727e-01,3.416149295720762868e-01,3.456199596503949922e-01,3.554122033930558477e-01,3.700025594553135178e-01,3.880263105755993314e-01,4.078744568243659052e-01,4.278708220938128859e-01,4.464949338284945335e-01,4.626506759968069815e-01,4.759807153033606131e-01,4.872267006422292823e-01,4.980867610043935301e-01,5.091673889016389287e-01,5.204406067862606955e-01,5.316893750520670370e-01,5.425873481370349083e-01,5.527671017219294436e-01,5.618768310248853926e-01,5.696255201919536715e-01,5.758165827836098094e-01,5.803699733572275088e-01,5.833327701455138792e-01,5.848782288309093413e-01,5.852933074159508697e-01,5.849546621895982401e-01,5.842931147895238375e-01,5.837465903603662465e-01,5.837015268079467356e-01,5.844227551494501904e-01,5.859718509595679414e-01,5.881139569126057065e-01,5.905021574142973462e-01,5.935912505218849944e-01,5.979769576784949026e-01,6.041220202476019763e-01,6.123419238622508365e-01,6.227969699000184267e-01,6.354906940837210527e-01,6.502746322078643004e-01,6.668594329908363871e-01,6.848323180528439469e-01,7.036808890195921373e-01,7.228232817517071807e-01,7.416446676999028931e-01,7.595401023858892042e-01,7.759637210090258863e-01,7.904842811787177181e-01,8.028470527725527495e-01,8.130420549201861080e-01,8.213786401129650194e-01,8.285664254392964834e-01,8.360243875791754098e-01,8.457365963379563922e-01,8.583107023769849242e-01,8.730326824952685527e-01,8.883325366968646275e-01,9.021882587986678192e-01,9.124680805785927440e-01,9.172109894641519157e-01,9.148455197614335788e-01,9.043468174244732039e-01,8.853319783650219765e-01,8.580936603027135012e-01,8.235719681556261662e-01,7.832646129712406147e-01,7.390753443977956527e-01,6.931006566960394855e-01,6.473547682913814993e-01,6.034328748664324893e-01,5.621126759939484296e-01
1.959560150733104522e-01,1.691779156405722462e-01,1.474360943593280293e-01,1.343607909027803859e-01,1.321823498482735670e-01,1.418829464435198140e-01,1.633530906914964220e-01,1.955529097540163741e-01,2.366782086739682711e-01,2.843313094162304155e-01,3.356966682272548574e-01,3.877212713133250110e-01,4.372998088374825398e-01,4.814646272351284506e-01,5.175804598482945940e-01,5.435439358785885133e-01,5.579878676588063691e-01,5.604903162432220975e-01,5.517884353165442013e-01,5.339970934215509946e-01,5.108322745053888170e-01,4.864374653694946149e-01,4.610960460062445421e-01,4.348453855121438005e-01,4.084777413892961007e-01,3.832303098468219371e-01,3.605195625007001636e-01,3.417198694720346430e-01,3.279864088837429192e-01,3.201223627556696316e-01,3.184903992981227283e-01,3.229684416038342554e-01,3.329497227383438895e-01,3.473871272288069356e-01,3.648818189512252896e-01,3.838161554161024780e-01,4.025308884525223840e-01,4.195466512906511070e-01,4.338297320426623416e-01,4.451021335820889435e-01,4.541959198215937410e-01,4.630377705676351763e-01,4.728779154034625232e-01,4.841624176168493610e-01,4.968729552263416172e-01,5.106638550025145440e-01,5.249829011479831831e-01,5.391759186361630984e-01,5.525751312087835432e-01,5.645712940321518936e-01,5.746696010121707943e-01,5.825293667681064047e-01,5.879874832651077465e-01,5.910656511054795947e-01,5.919613854787054708e-01,5.910227967702231799e-01,5.887071458289522274e-01,5.855231738935720021e-01,5.819572071775539479e-01,5.783830361129425057e-01,5.749555692528899309e-01,5.717352733053308045e-01,5.694745936052587609e-01,5.690825698638571906e-01,5.713500051406532609e-01,5.768933909273579186e-01,5.861133872212326290e-01,5.991678575879778590e-01,6.159594592141488523e-01,6.361377879490944798e-01,6.591160783364207187e-01,6.841024586349797598e-01,7.101457608293820778e-01,7.361958856300352405e-01,7.611787224627039050e-01,7.840856244475989945e-01,8.040774383679872850e-01,8.206030896283281750e-01,8.335327222019326410e-01,8.433053935681512625e-01,8.510913246390807707e-01,8.589560117378087778e-01,8.689255032431936199e-01,8.814833286820001890e-01,8.958216766880950921e-01,9.103090031208476152e-01,9.228947412762843472e-01,9.314511141910045700e-01,9.340520490388493080e-01,9.291891936203309221e-01,9.159250349448151418e-01,8.939831199054636413e-01,8.637753780469317189e-01,8.263665464258246329e-01,7.833756965639073755e-01,7.368148634940753228e-01,6.888647768990782128e-01,6.415876943430072199e-01,5.965773365955286955e-01,5.545459250488836700e-01
2.051886585030151533e-01,1.761200026558543685e-01,1.520090481982317443e-01,1.364556004088298136e-01,1.316993165866671145e-01,1.387588173446641371e-01,1.575771468866044300e-01,1.871735822674918670e-01,2.258017916373036282e-01,2.711143414681394526e-01,3.203335527647661607e-01,3.704287062585592261e-01,4.182995965848385067e-01,4.609664354436012745e-01,4.957661037436507656e-01,5.205547527301218613e-01,5.339167540953984048e-01,5.353799990734324776e-01,5.256375465174532025e-01,5.067756199610798928e-01,4.825079536628217314e-01,4.570452957857048526e-01,4.308571191991594218e-01,4.041121578664158553e-01,3.776534456371063997e-01,3.527059770890843549e-01,3.306271065169227863e-01,3.126996850670948347e-01,2.999679360198329592e-01,2.931160682176689458e-01,2.923896276406537376e-01,2.975595871282581406e-01,3.079291742479527416e-01,3.223834373104690343e-01,3.394815495317404785e-01,3.575918513415224376e-01,3.750696308386949340e-01,3.904776423932431184e-01,4.028493633949182251e-01,4.119949891485820137e-01,4.188501659162258695e-01,4.255851770229952535e-01,4.340998951175977227e-01,4.453139362052974115e-01,4.594040339912043303e-01,4.759996928110171721e-01,4.943577248119467860e-01,5.135156713838175957e-01,5.324241088403499633e-01,5.500578383506197211e-01,5.655059601206995357e-01,5.780408318254782740e-01,5.871659112906590927e-01,5.926424834249384155e-01,5.944952714023634677e-01,5.929969320948689226e-01,5.886314357549934373e-01,5.820363299487756326e-01,5.739238877388280757e-01,5.649811401175932613e-01,5.557487926907758169e-01,5.466761921610884256e-01,5.387670214465002383e-01,5.332102877873619029e-01,5.311110246398520474e-01,5.333883272954400567e-01,5.406964903532909261e-01,5.533692470456128554e-01,5.713871104159458092e-01,5.943678163503932632e-01,6.215798684617958036e-01,6.519791848268475798e-01,6.842688465761523897e-01,7.169819483372258384e-01,7.485875505304359079e-01,7.776197335178888226e-01,8.028297536052545480e-01,8.233613008965359192e-01,8.389488590017782910e-01,8.501391665977260370e-01,8.585357808414139091e-01,8.668389475143041256e-01,8.771719365378934929e-01,8.899459326146245131e-01,9.042891199562788085e-01,9.185191860549747345e-01,9.305517077163741879e-01,9.382444193550973921e-01,9.396773635523456569e-01,9.333689238757350015e-01,9.184277399613355319e-01,8.946405048579214592e-01,8.624956446334282045e-01,8.231428802436205894e-01,7.782886716629653368e-01,7.300275442777161006e-01,6.806092975412049162e-01,6.321420958913457344e-01,5.862314419303387147e-01,5.435550318665910430e-01
2.230904449722631577e-01,1.917192688720776583e-01,1.651627172658342579e-01,1.469446429253666864e-01,1.392870923921604720e-01,1.432344784691188533e-01,1.587856723604464393e-01,1.850340154596545883e-01,2.203152507856859788e-01,2.623633740671591497e-01,3.084744044747336766e-01,3.556780750015952064e-01,4.009174424920598501e-01,4.412364173182990457e-01,4.739752127051850561e-01,4.969737137032569918e-01,5.087827658098028616e-01,5.088833832380676991e-01,4.979138768345756083e-01,4.779049016445797715e-01,4.525224241256235458e-01,4.259946637694867477e-01,3.989772820283271626e-01,3.717808262742099412e-01,3.453052869057989804e-01,3.207659022731527698e-01,2.994601534974562496e-01,2.825759491856904559e-01,2.710410000402380115e-01,2.654133833634259587e-01,2.658132974570044937e-01,2.718960059165637655e-01,2.828659718208860196e-01,2.975321818162353638e-01,3.144046600955840987e-01,3.318321722727758383e-01,3.481811191516246962e-01,3.620556203899524816e-01,3.725587880585606859e-01,3.795951900951426983e-01,3.842145036531284252e-01,3.888367691735670206e-01,3.959883140989808870e-01,4.070398371430775097e-01,4.223498369262224661e-01,4.415177364109501568e-01,4.636110011790834928e-01,4.873662515504585402e-01,5.113643685432583963e-01,5.341795936759510255e-01,5.545026226108378253e-01,5.712376926392056520e-01,5.835736640080875226e-01,5.910290950886298855e-01,5.934713113860672351e-01,5.911094683913031833e-01,5.844616082740984320e-01,5.742957104178660899e-01,5.615447357960732244e-01,5.471956651902513125e-01,5.321525312496102611e-01,5.172145635968162791e-01,5.035734158057559862e-01,4.926483643653770117e-01,4.858292771242576635e-01,4.843262216611515236e-01,4.890507223718926211e-01,5.005286662726594615e-01,5.188448575195991896e-01,5.436192206448117181e-01,5.740146525086931018e-01,6.087765229686398216e-01,6.463038242641101494e-01,6.847519691180489199e-01,7.221672375546687173e-01,7.566528724335934708e-01,7.865668237003592411e-01,8.107511413532776379e-01,8.287930171266540968e-01,8.413174748903752276e-01,8.503117097658432488e-01,8.590686780779694942e-01,8.698630918818629487e-01,8.830920860145049511e-01,8.978543211135996405e-01,9.124303598050256259e-01,9.246977053219492815e-01,9.324805025555966687e-01,9.338339015376889707e-01,9.272630833545338902e-01,9.118769484927803370e-01,8.874764676168332977e-01,8.545776947779264443e-01,8.143694430548586993e-01,7.686056226263869862e-01,7.194322412752818252e-01,6.691490673240430009e-01,6.199059550022769649e-01,5.733338322457279812e-01,5.301103509269768921e-01
2.481555138588696086e-01,2.145636924627305209e-01,1.855981389184612751e-01,1.646738070237880047e-01,1.539745616917838067e-01,1.545611689627055807e-01,1.664887140304076030e-01,1.889334472833351097e-01,2.203290583600942265e-01,2.585123782196015463e-01,3.008785092258115523e-01,3.445453832470222189e-01,3.865277477697582897e-01,4.239205800272337066e-01,4.540919291423913262e-01,4.748851862855237860e-01,4.848307828464661351e-01,4.833673166213745542e-01,4.710721060140756755e-01,4.499011722520039336e-01,4.234386496167060754e-01,3.958910352034590852e-01,3.680965279222851438e-01,3.405132874978107904e-01,3.141027588176069640e-01,2.900734846216284635e-01,2.696646212441306534e-01,2.539691574080676917e-01,2.437968360719678651e-01,2.395767793292883363e-01,2.412998163602498303e-01,2.485005144361492613e-01,2.602789129761519105e-01,2.753619606565625988e-01,2.922046555725759109e-01,3.091308884525049705e-01,3.245139889244904041e-01,3.369969748356871353e-01,3.457525046239294242e-01,3.507825327418794270e-01,3.532576681336483948e-01,3.558444746993968399e-01,3.616452916002768081e-01,3.724392308426253129e-01,3.887446906781151235e-01,4.101264067641908762e-01,4.354718007289020143e-01,4.632366261401282825e-01,4.916599118792044365e-01,5.189482029189358414e-01,5.434290985060129531e-01,5.636740877478191303e-01,5.785906826036333328e-01,5.874838482802302586e-01,5.900867310318734793e-01,5.865606833647051266e-01,5.774645866455299092e-01,5.636934711149960142e-01,5.463864333051682287e-01,5.268038508615013882e-01,5.061738947692026036e-01,4.855892792598323071e-01,4.663545231959432824e-01,4.500570689213478359e-01,4.383289898724475053e-01,4.326473876452772149e-01,4.341746456426921474e-01,4.436385393016948897e-01,4.612522029009040736e-01,4.866739529481632354e-01,5.190069681482920583e-01,5.568388259509782223e-01,5.983208956788091948e-01,6.412875882354471813e-01,6.834154623939426854e-01,7.224221876651923946e-01,7.563053637465347867e-01,7.836211965504890076e-01,8.038030308136316915e-01,8.175197392856236034e-01,8.270739684983636764e-01,8.362824125070923431e-01,8.476201225423232177e-01,8.615303728035751396e-01,8.771187430361756521e-01,8.926440999227672757e-01,9.059430694588360700e-01,9.147880003122587089e-01,9.171784181668726221e-01,9.115659710500643165e-01,8.970128656443809856e-01,8.732837945831589677e-01,8.408713547301758240e-01,8.009549564433240398e-01,7.552932238223004635e-01,7.060498859403201433e-01,6.555531590598498992e-01,6.059886198323647388e-01,5.590255694821182342e-01,5.153768889739397396e-01
2.782925052905693142e-01,2.426509708883384242e-01,2.114251562525238104e-01,1.879035314390692379e-01,1.742192777507015067e-01,1.714420479900739813e-01,1.796805422922320705e-01,1.981958995364028198e-01,2.255259043371063421e-01,2.596200096145895309e-01,2.979851747445844135e-01,3.378425192873874550e-01,3.762947922962621705e-01,4.105046572051651022e-01,4.378837922957936057e-01,4.562928067439588897e-01,4.642519722452764230e-01,4.611627702201858692e-01,4.475402545982873903e-01,4.252562301820088653e-01,3.977932465895864800e-01,3.693107252009077968e-01,3.408222251853368912e-01,3.129341349575828768e-01,2.866717892525631473e-01,2.632404825240174384e-01,2.438248176310468252e-01,2.294263898125789292e-01,2.207398059497581444e-01,2.180670391162622401e-01,2.212701184165438428e-01,2.297621541119984345e-01,2.425366980350572299e-01,2.582354392912061258e-01,2.752542352489306121e-01,2.918874778175851725e-01,3.065107950131898407e-01,3.178020878121515236e-01,3.250009022929101210e-01,3.282061370655138255e-01,3.287120859891153879e-01,3.294193066103192624e-01,3.339319235712438494e-01,3.443775791088513616e-01,3.614056918797271534e-01,3.845427283578479738e-01,4.125124513267451332e-01,4.435211454660538677e-01,4.755078200324586724e-01,5.063593886350232776e-01,5.340908261049172046e-01,5.569903024595284080e-01,5.737292939609693887e-01,5.834376712689722799e-01,5.857437646881761273e-01,5.807794065098035308e-01,5.691499504477288696e-01,5.518692681689369994e-01,5.302597229183709793e-01,5.058171202381751552e-01,4.800406357813223335e-01,4.542467752363074096e-01,4.297716424339511621e-01,4.083009750989815001e-01,3.916562931029152761e-01,3.815471453265689705e-01,3.793707636169437736e-01,3.860591238384860624e-01,4.019734140187194993e-01,4.268459095882533028e-01,4.597692557151631387e-01,4.992331567337470744e-01,5.432084726676539299e-01,5.892787228473876926e-01,6.348189966221833291e-01,6.772222711662606587e-01,7.141731363794471266e-01,7.439689268821785273e-01,7.658882611048697386e-01,7.806069874716685675e-01,7.906615376785688376e-01,8.003013614911405060e-01,8.122415114140689729e-01,8.270288151621472128e-01,8.438113629837787899e-01,8.608423653868708669e-01,8.759164242197456929e-01,8.867382171070666841e-01,8.912235952407806527e-01,8.877330945260765160e-01,8.752378600823609300e-01,8.534179840992467403e-01,8.226932570475600226e-01,7.841863322453654916e-01,7.396183037790002857e-01,6.911366977791320032e-01,6.410758770518266703e-01,5.916498590646396272e-01,5.445775472877122381e-01,5.006403758898938516e-01
3.109895957513488796e-01,2.735477392653454243e-01,2.403141030245545540e-01,2.144500896335581053e-01,1.980348653409786108e-01,1.921420699214170802e-01,1.969285579859332280e-01,2.117351717210677331e-01,2.351995450564072498e-01,2.653809392606918949e-01,2.998971099664644036e-01,3.360732056232635934e-01,3.711026973793578043e-01,4.022203403920224241e-01,4.268871665663592219e-01,4.429875087226600172e-01,4.490380561923080216e-01,4.444089418422272342e-01,4.295568605278690111e-01,4.062702189747486869e-01,3.779263170885153733e-01,3.486281652248279794e-01,3.195544293397294400e-01,2.914549988407892922e-01,2.654192455013101859e-01,2.426528042147409192e-01,2.242914905376515999e-01,2.112523550212699885e-01,2.041218743315774409e-01,2.030812791579671428e-01,2.078690189104623887e-01,2.177803632054960414e-01,2.317041401402511192e-01,2.481966113555617304e-01,2.655924838873759963e-01,2.821530588067780454e-01,2.962515166485730211e-01,3.065953396284319399e-01,3.124858706485960647e-01,3.141150090921464022e-01,3.128990434058293024e-01,3.119514137607971582e-01,3.152849566273406290e-01,3.253027739351335157e-01,3.427513820628672603e-01,3.671167072757057781e-01,3.969812725991541114e-01,4.303425761293341867e-01,4.648926607796759480e-01,4.982588754640145390e-01,5.282058277161025828e-01,5.527985277455305102e-01,5.705267239300584325e-01,5.803904297443599480e-01,5.819466421251749955e-01,5.753172512728758070e-01,5.611581418894407980e-01,5.405894858528431657e-01,5.150872263278447605e-01,4.863357533132091071e-01,4.560417706253153125e-01,4.256674240185688851e-01,3.964987966306757206e-01,3.702472574285924911e-01,3.488645431505548178e-01,3.342497243539391261e-01,3.280101946717218220e-01,3.312766832775314585e-01,3.445722905592951690e-01,3.677355470014794792e-01,3.998974952759261625e-01,4.395127955412818643e-01,4.844448539510213814e-01,5.321049743700670964e-01,5.796455333000002375e-01,6.242071780128697345e-01,6.632200478935923460e-01,6.947590189909484959e-01,7.179529717771702124e-01,7.334480821161322162e-01,7.439251354401221761e-01,7.539595558433108691e-01,7.665336956440240712e-01,7.823482833726115304e-01,8.006260188443926618e-01,8.196299390456195377e-01,8.371132531054472636e-01,8.507006463539146246e-01,8.582010534659304524e-01,8.578519006912723732e-01,8.484948171705904985e-01,8.296828153374208314e-01,8.017189404062066149e-01,7.656263889463305050e-01,7.230500965421504667e-01,6.760897945390491603e-01,6.270645358754867171e-01,5.782086900010694475e-01,5.312994068806163872e-01,4.872155500842431097e-01
3.435423691641313337e-01,3.046115374953373145e-01,2.697096831072405276e-01,2.418877172407866427e-01,2.231769220566320877e-01,2.146529441378939584e-01,2.165128240257793713e-01,2.281650617880960352e-01,2.483327186206431836e-01,2.751695544814832251e-01,3.063892017580939764e-01,3.394073749674019758e-01,3.714971164886954891e-01,3.999570783294188470e-01,4.222928399238470298e-01,4.364112619646429714e-01,4.408278762672902529e-01,4.348873116674130124e-01,4.189967559509696349e-01,3.948724538173365994e-01,3.657992408752619995e-01,3.358311493790169244e-01,3.062993018603661355e-01,2.780873028714015982e-01,2.523463941905169095e-01,2.302860369032375398e-01,2.130006400027181224e-01,2.013324355099093410e-01,1.957705001133897560e-01,1.963859233288678674e-01,2.028031221783493654e-01,2.142073023889745631e-01,2.293880661115209885e-01,2.468191661585752428e-01,2.647744067623722386e-01,2.814796908523009011e-01,2.953012138520795249e-01,3.049698039965967888e-01,3.098414091684207894e-01,3.101937302539781727e-01,3.075590010193969270e-01,3.052352354267643952e-01,3.075382924875771362e-01,3.170653795237897143e-01,3.346234285650109275e-01,3.596570299293520567e-01,3.906344293130072920e-01,4.253915883885618920e-01,4.614343089120342967e-01,4.961984203386434755e-01,5.272680309473126714e-01,5.525518424738988799e-01,5.704175282531543933e-01,5.797841748694185782e-01,5.801727873160407167e-01,5.717148576635319168e-01,5.551189972364477532e-01,5.315956322990028626e-01,5.027397632494118307e-01,4.703717873229676938e-01,4.363363848038412374e-01,4.021600160329236173e-01,3.690023896198864617e-01,3.385299965466078698e-01,3.127630947792262028e-01,2.937418886390050221e-01,2.832521979947100199e-01,2.826106172764963897e-01,2.925091643113041928e-01,3.129194189797659953e-01,3.430561516946232237e-01,3.814004417006539027e-01,4.257822851961081678e-01,4.735226932756568252e-01,5.216352796948472426e-01,5.670873384560720654e-01,6.071204112160455413e-01,6.396303445147909494e-01,6.636068368261366368e-01,6.796324754297294879e-01,6.904412631045443449e-01,7.008192078234233291e-01,7.140289438601962191e-01,7.309648893307418849e-01,7.509507413020042321e-01,7.722732263213999415e-01,7.926465398230408965e-01,8.096074744107707444e-01,8.208412370180111495e-01,8.244379549444252886e-01,8.190798707693904834e-01,8.041592261422865207e-01,7.798268344495947746e-01,7.469713423588137946e-01,7.071291802391824755e-01,6.623252014592211356e-01,6.148440105610826212e-01,5.669319803117203183e-01,5.204299576308625275e-01,4.763366583958047462e-01
3.733445234498092846e-01,3.332755261546036518e-01,2.971070444814504219e-01,2.678115823893006398e-01,2.473874182749680739e-01,2.369131794557584603e-01,2.366162216943522856e-01,2.459548137659416656e-01,2.637141270676208182e-01,2.881160302700295772e-01,3.169426890112521655e-01,3.476739706329681212e-01,3.776386539588577618e-01,4.041794441152612993e-01,4.248317923940911345e-01,4.375165211580004931e-01,4.407462537878001352e-01,4.338456496721353473e-01,4.171854442394107854e-01,3.924302940319764899e-01,3.628004268225590301e-01,3.323240598712176030e-01,3.024706353020594207e-01,2.742434377409037616e-01,2.488513159809015163e-01,2.275107143561606871e-01,2.112830925992327524e-01,2.009477341824587315e-01,1.969099431431758640e-01,1.991446293927832401e-01,2.071752825096681572e-01,2.200883340159928425e-01,2.365829081383400978e-01,2.550559610522197818e-01,2.737228086104357971e-01,2.907730425553114451e-01,3.045618352147764774e-01,3.138366326823133767e-01,3.179992364807627259e-01,3.174032737099919954e-01,3.136870556784202568e-01,3.102997599444767274e-01,3.117493228816099471e-01,3.207430375310332815e-01,3.381113114298686106e-01,3.632580824489896054e-01,3.945669037584348393e-01,4.297626979203831299e-01,4.662291801096996591e-01,5.012819504620437128e-01,5.323972555495477543e-01,5.573964189840582284e-01,5.745859411479460332e-01,5.828532680524809440e-01,5.817182293237745938e-01,5.713401453162882948e-01,5.524806033539070294e-01,5.264219030985817227e-01,4.948411710465335234e-01,4.596401441520323594e-01,4.227306225787315630e-01,3.856243307280053934e-01,3.492883468259288526e-01,3.152804930682345241e-01,2.856295226304107482e-01,2.624662826289900774e-01,2.477185515135680582e-01,2.428695508895444555e-01,2.487801317715906402e-01,2.655746352678422517e-01,2.925904276948175786e-01,3.283911101230612695e-01,3.708434023535121526e-01,4.172577013245983291e-01,4.645923139500556243e-01,5.097213643874741740e-01,5.497663757375671478e-01,5.824915261741668848e-01,6.067625795049435000e-01,6.230694901628579530e-01,6.341126826283249862e-01,6.447726152711639180e-01,6.585904860050308951e-01,6.766813637246140711e-01,6.984890719276377613e-01,7.223354121769853808e-01,7.458994792013378117e-01,7.666270676343301949e-01,7.820701703922199322e-01,7.901565686900767771e-01,7.893895136964832471e-01,7.789774998267532391e-01,7.588941296746665177e-01,7.298680705827188531e-01,6.933031028508872540e-01,6.511282595839119614e-01,6.055780581770927595e-01,5.589028234406059337e-01,5.130091023623283286e-01,4.690301705091847184e-01
3.982414125626308476e-01,3.573959511440419345e-01,3.203900477642588895e-01,2.901615989065080559e-01,2.686975957642039337e-01,2.570832131691950795e-01,2.555652316006799540e-01,2.636297922747918854e-01,2.800944853148529812e-01,3.032147710022975451e-01,3.308047341082648307e-01,3.603721713058609111e-01,3.892680116630891085e-01,4.148500702164512610e-01,4.346611346252162722e-01,4.466213849063609409e-01,4.492351462501747994e-01,4.418119749165403953e-01,4.247020772118765275e-01,3.995460615467589793e-01,3.695390235742017637e-01,3.387190716483101105e-01,3.086794848193158969e-01,2.805263512000856219e-01,2.555202750378569587e-01,2.348873229316645883e-01,2.196648380301819137e-01,2.105821222099806822e-01,2.079759862342060450e-01,2.117411678916685247e-01,2.213156181163526970e-01,2.357006550873423922e-01,2.535159863091623333e-01,2.730895986725361824e-01,2.925825164955619950e-01,3.101484275453029738e-01,3.241281770397959061e-01,3.332791296304756790e-01,3.370393993650150910e-01,3.358269476305858481e-01,3.313735490775294723e-01,3.272438874113616225e-01,3.280300949260761545e-01,3.364690355364048369e-01,3.533800163018148144e-01,3.781282907339281185e-01,4.090425871355042320e-01,4.437866619709867622e-01,4.796848782686156665e-01,5.140018090541009776e-01,5.441758658158636353e-01,5.680069520018385942e-01,5.837981415478420422e-01,5.904513824375031694e-01,5.875172252937611583e-01,5.751985770019240052e-01,5.543084793642927277e-01,5.261819127863511802e-01,4.925416249945151481e-01,4.553179847854539886e-01,4.164228608069658888e-01,3.772817972236403028e-01,3.386167405702564248e-01,3.018235901132850785e-01,2.688852918079459586e-01,2.419744991599762640e-01,2.231227818698668652e-01,2.139563822595622056e-01,2.154985194816233796e-01,2.280382415108569982e-01,2.510658249184077317e-01,2.832747224283165277e-01,3.226300582565405639e-01,3.665036712324407087e-01,4.118757057027310764e-01,4.556027502178953692e-01,4.947525240010646752e-01,5.270051111993623305e-01,5.511207429177095163e-01,5.674741270351042477e-01,5.786553258033505509e-01,5.895306085496745396e-01,6.039048957731650846e-01,6.231274168811289371e-01,6.467733671936258810e-01,6.732079763436067399e-01,7.000802582233431881e-01,7.247464424771493663e-01,7.446230875403953009e-01,7.574698752248131273e-01,7.616020868500948948e-01,7.560327609217795120e-01,7.405445323554344927e-01,7.156911532471300630e-01,6.827286951902009626e-01,6.434764331383043823e-01,6.001074108147661512e-01,5.548686876682242808e-01,5.097312673745552081e-01,4.659697078851003371e-01
4.169464240019331025e-01,3.756623570993991579e-01,3.382317292729645208e-01,3.076070824025428641e-01,2.857893649373745570e-01,2.738756247118607212e-01,2.721213393024432547e-01,2.800173839255277741e-01,2.963816368764504161e-01,3.194652225094897213e-01,3.470733917589213235e-01,3.767010402011178316e-01,4.056828636576920721e-01,4.313581513396841371e-01,4.512502165327930692e-01,4.632604648236539613e-01,4.658770998671543651e-01,4.583984666948008324e-01,4.411710325641234887e-01,4.158420053491329593e-01,3.856265894718114984e-01,3.546153362035588952e-01,3.245119060786651466e-01,2.965075548118337179e-01,2.719080432746890930e-01,2.519510460657895523e-01,2.376581279452525952e-01,2.297212881339936175e-01,2.284240724775769005e-01,2.335972534746798279e-01,2.446090781701691919e-01,2.603900839127917810e-01,2.794924819774758928e-01,3.001841090522471278e-01,3.205769465897568282e-01,3.387902080234218571e-01,3.531479938481799086e-01,3.624115145658549086e-01,3.660458814951357276e-01,3.645214654461714221e-01,3.596498232597732381e-01,3.550768964488805191e-01,3.553833069701801683e-01,3.632650387366926914e-01,3.795007333141900974e-01,4.034197811627657781e-01,4.333234899446884447e-01,4.668593298985380668e-01,5.013482562796260922e-01,5.340651088666961144e-01,5.624720885349104860e-01,5.844053108951177133e-01,5.982144369994030209e-01,6.028553811129226947e-01,5.979360955520204302e-01,5.837154325886280137e-01,5.610550834209457882e-01,5.313245942104106723e-01,4.962594591849415204e-01,4.577722908084746467e-01,4.177170670167732469e-01,3.773742445202389884e-01,3.371838998168023571e-01,2.983400044851686750e-01,2.627348775988520568e-01,2.325398688905141731e-01,2.098542464376021432e-01,1.964222888692820079e-01,1.934185820946655865e-01,2.013015205523358830e-01,2.197350129811664887e-01,2.475783927124382000e-01,2.829445324832497999e-01,3.233261637712258052e-01,3.657904006505192651e-01,4.072414681691120530e-01,4.447516352474084056e-01,4.759603520981256497e-01,4.995415921674788429e-01,5.157393985976694850e-01,5.269716352106541546e-01,5.379975402994895406e-01,5.528617256535774960e-01,5.731490832801451329e-01,5.985700884111180287e-01,6.275385668108103276e-01,6.576789071758404326e-01,6.862627186272671764e-01,7.105749332949471420e-01,7.282093539941190130e-01,7.372936469942044102e-01,7.366437798798337599e-01,7.258479045040943101e-01,7.052796850340005141e-01,6.760410710881857854e-01,6.398345159668161752e-01,5.987646399737274194e-01,5.550693388307860188e-01,5.107803371844664708e-01,4.673131872046566437e-01
4.295201918002355956e-01,3.880705495618618772e-01,3.505569586251107150e-01,3.199922492341541469e-01,2.984152007525296968e-01,2.869404339371375290e-01,2.858230655922595065e-01,2.945381256036018192e-01,3.118747363523593497e-01,3.360450545093031649e-01,3.648079752088909111e-01,3.956075986033990022e-01,4.257264587970785441e-01,4.524535151603327199e-01,4.732669060239175218e-01,4.860314647531666088e-01,4.892109982022342929e-01,4.820953275483668143e-01,4.650420915061904137e-01,4.397333119220303566e-01,4.094467217482431476e-01,3.783661445558971770e-01,3.482947995635118921e-01,3.204935473649019317e-01,2.963071793684460276e-01,2.769862472109264617e-01,2.635433369784215274e-01,2.566437882342534893e-01,2.565308578539903239e-01,2.629853286675014612e-01,2.753195629080680273e-01,2.924060004685476444e-01,3.127401019645928426e-01,3.345377366049239187e-01,3.558670148686571832e-01,3.748145659896851001e-01,3.896862602481133142e-01,3.992423760687501821e-01,4.029672119266499708e-01,4.013731430597146099e-01,3.963391229883433953e-01,3.915640150273801967e-01,3.915431349105049641e-01,3.988779848643184134e-01,4.142845619714503602e-01,4.370593619632392457e-01,4.654980713810935589e-01,4.972669481065325470e-01,5.297268902599115981e-01,5.602101934678254125e-01,5.862499964991951806e-01,6.057624152700364917e-01,6.171813652169072517e-01,6.195460720390385534e-01,6.125412708091465541e-01,5.964900934529256959e-01,5.722996445972217128e-01,5.413592657868900870e-01,5.053914880703294088e-01,4.662556729537047917e-01,4.257043417238426941e-01,3.848307412686989837e-01,3.437720043561710015e-01,3.034946665030303636e-01,2.657683343302290058e-01,2.327299713155751293e-01,2.065170673862676276e-01,1.889696923512873550e-01,1.814014331736411578e-01,1.844392150824662457e-01,1.979320065249876859e-01,2.209284079583339055e-01,2.517231244812069835e-01,2.879723223054105330e-01,3.268778690672319853e-01,3.654404579786839080e-01,4.007816158185978916e-01,4.305345947635776938e-01,4.533041480588046457e-01,4.691951895287082008e-01,4.804103369274786428e-01,4.915328180028161742e-01,5.068203945761360352e-01,5.280870497362181171e-01,5.551770775908253519e-01,5.865552315781004111e-01,6.198262209160773084e-01,6.521835551903049089e-01,6.807877370795812899e-01,7.030738032198056153e-01,7.169882132059379742e-01,7.211550867320738467e-01,7.149717888696303092e-01,6.986338634836478656e-01,6.730893147871997995e-01,6.399222370339193722e-01,6.011657923486355415e-01,5.590445366961268592e-01,5.156460939879795591e-01,4.725221783275664333e-01
4.379126449876699079e-01,3.964583059089742956e-01,3.590672908744910186e-01,3.288425583486016546e-01,3.078765372592077720e-01,2.973054840170851754e-01,2.973786214480345080e-01,3.075420596378266036e-01,3.265374986899436394e-01,3.525157133961149269e-01,3.831648198196491162e-01,4.158533237915610359e-01,4.477879513194939487e-01,4.761862609094369980e-01,4.984640378002388461e-01,5.124374701109170038e-01,5.165401069007592438e-01,5.100545981422252018e-01,4.933592166066378959e-01,4.681891616626790986e-01,4.379126449876699079e-01,4.068340694012804182e-01,3.768498612715440177e-01,3.492806549486925372e-01,3.255062625483735039e-01,3.067906912263931862e-01,2.941415860064696131e-01,2.882040981609951813e-01,2.891891791448071292e-01,2.968363000819685960e-01,3.104105968055576592e-01,3.287344404504666251e-01,3.502534335992094627e-01,3.731368319807388256e-01,3.954123917222733264e-01,4.151356421541315123e-01,4.305935841675775366e-01,4.405428141256745311e-01,4.444820733271465096e-01,4.429592230232534678e-01,4.379126449876699079e-01,4.330770953529701206e-01,4.328208889750916888e-01,4.396211423302241461e-01,4.541192220252031619e-01,4.755808252417776938e-01,5.023086877324812738e-01,5.320079193681037655e-01,5.621039672367706963e-01,5.900132062946212841e-01,6.133661575680936506e-01,6.301833339078110052e-01,6.390037132940711295e-01,6.389658396939408291e-01,6.298415514699520212e-01,6.120223373404017897e-01,5.864583198912550754e-01,5.545498666396533327e-01,5.179918286490201584e-01,4.785704066957802150e-01,4.379126449876699079e-01,3.969025251008446720e-01,3.553661634286813809e-01,3.140310684870695201e-01,2.745273133622588846e-01,2.389388673608766334e-01,2.094239177885214576e-01,1.879041818569328337e-01,1.758232087197318383e-01,1.739736716367404346e-01,1.823936502668720983e-01,2.003319030895995834e-01,2.262821299549955256e-01,2.580862247623483263e-01,2.931065182673525671e-01,3.284670110178752322e-01,3.613635964182939642e-01,3.894432739224124029e-01,4.112523523549468374e-01,4.267536433615955471e-01,4.379126449876699079e-01,4.490989793581696143e-01,4.647643281625501999e-01,4.869439672479516923e-01,5.156128192270098554e-01,5.492870086683779851e-01,5.855547502555611405e-01,6.215365699140603661e-01,6.542748589068255738e-01,6.810527608980253556e-01,6.996423919851197937e-01,7.084823936992490356e-01,7.067848189739304177e-01,6.945713510820676895e-01,6.726388555412687875e-01,6.424542649874773748e-01,6.059787970169109306e-01,5.654215049963154938e-01,5.229221618415237360e-01,4.801634767643291890e-01
4.447524388108710647e-01,4.034072132233830765e-01,3.662683572085879691e-01,3.365379603775731088e-01,3.163651029834226303e-01,3.069060782120830444e-01,3.083992823171083364e-01,3.202547725982842763e-01,3.411584932241324419e-01,3.691911688982928985e-01,4.019618663697863137e-01,4.367562237871563946e-01,4.706993478964894284e-01,5.009333790833152555e-01,5.248097242583867894e-01,5.400959575873391927e-01,5.451973890642261011e-01,5.393933009289393343e-01,5.230878519285019346e-01,4.980756494222502440e-01,4.678219893308837585e-01,4.367541802146998053e-01,4.068502376814568944e-01,3.794808655785342766e-01,3.560566091289807944e-01,3.378549764249522136e-01,3.258820497359607993e-01,3.207685866319365253e-01,3.227006109210995288e-01,3.313844934026439759e-01,3.460465224342338941e-01,3.654669643143105828e-01,3.880486134792109909e-01,4.119198325150978945e-01,4.350720819847025966e-01,4.555319400688772058e-01,4.715676120229605472e-01,4.819299294479542084e-01,4.861278393765096073e-01,4.847383831737306359e-01,4.797511652527817194e-01,4.749260369694315309e-01,4.744907220241987300e-01,4.807882582317820619e-01,4.943803498242169692e-01,5.145007455905088456e-01,5.394612240810032766e-01,5.670101858764927671e-01,5.946438529220625657e-01,6.198700749256712550e-01,6.404247428214706606e-01,6.544408092978618585e-01,6.605699163902887250e-01,6.580566301387681394e-01,6.467652823101586179e-01,6.271594191851651567e-01,6.002338574100811730e-01,5.673993469132693201e-01,5.303198408863756264e-01,4.907023728302875032e-01,4.500395406658208031e-01,4.089990769717156138e-01,3.671045907963436661e-01,3.248512188818290514e-01,2.837304369588556918e-01,2.457699920514605507e-01,2.131427586710102351e-01,1.878445188993577430e-01,1.714406663611772741e-01,1.648818340854825426e-01,1.683884462563224049e-01,1.814041938526591569e-01,2.026184341774259490e-01,2.300575142757648184e-01,2.612450182424445044e-01,2.934309384184604630e-01,3.238897704768126662e-01,3.502875323974655730e-01,3.711177073314858021e-01,3.862061103543674156e-01,3.972846791085257179e-01,4.085081588931093743e-01,4.245124669421425634e-01,4.475478657482432898e-01,4.777186182766401390e-01,5.135946392455301712e-01,5.527526046191644227e-01,5.922465193136603467e-01,6.290077431155378651e-01,6.601744748129879659e-01,6.833506945398629684e-01,6.967945643323945060e-01,6.995362868986396698e-01,6.914254226006514292e-01,6.731076646493793225e-01,6.459310725122922037e-01,6.117817635337307047e-01,5.728490627679876379e-01,5.313201110251098980e-01,4.890039311294314683e-01
4.480067664549678419e-01,4.072220068444516450e-01,3.708197597771514809e-01,3.421148076947769789e-01,3.233102091650183474e-01,3.155684095126652378e-01,3.190962902507989973e-01,3.332441573120584200e-01,3.566186680799772191e-01,3.872096972203958876e-01,4.225311413129458904e-01,4.597756622826070227e-01,4.959833696313377671e-01,5.282244414697780943e-01,5.537956843490269287e-01,5.704310318924912249e-01,5.765259822278073765e-01,5.713759742188382340e-01,5.554287024977387910e-01,5.305503712971026964e-01,5.003058870821728288e-01,4.692253034560658898e-01,4.393129232101991022e-01,4.119490525759133548e-01,3.885570589220551652e-01,3.704280904009726871e-01,3.585806961230431078e-01,3.536553468597353755e-01,3.558438562752028744e-01,3.648537026864113741e-01,3.799072513517983141e-01,3.997758772884659750e-01,4.228489886179070401e-01,4.472379504402623218e-01,4.709149092371135437e-01,4.918865178028060670e-01,5.084025607043068939e-01,5.191994802695946154e-01,5.237788031045805814e-01,5.227204671385681234e-01,5.180310491982378363e-01,5.134567996646836052e-01,5.130544932842492356e-01,5.190113300664858098e-01,5.317945608077351283e-01,5.505978295923670274e-01,5.737399924219197533e-01,5.990164119721408387e-01,6.240027284779335881e-01,6.463111067462017356e-01,6.637989592966003771e-01,6.747301456301878497e-01,6.778886476259783356e-01,6.726447210654004083e-01,6.589735232846545276e-01,6.374262169549759216e-01,6.090535499907966388e-01,5.752819115858140986e-01,5.377418643769569240e-01,4.980491527362593818e-01,4.575381871906318842e-01,4.166446622481863593e-01,3.746399226122600901e-01,3.318308598122163278e-01,2.895902422988691494e-01,2.498900164136870772e-01,2.149031078941604223e-01,1.866737239153287153e-01,1.668561556674651170e-01,1.565220814699247731e-01,1.560363704211502056e-01,1.650013865848387051e-01,1.822697937122692013e-01,2.060258605007884158e-01,2.339352663884581018e-01,2.633634078848628435e-01,2.916622054380762497e-01,3.165254108377884013e-01,3.364124151545917485e-01,3.510405572154328691e-01,3.619459326152141276e-01,3.730955577489435959e-01,3.892768952585377584e-01,4.129300079252918865e-01,4.442853439732194487e-01,4.819794434991098164e-01,5.236009035846153070e-01,5.661666020903701746e-01,6.065281801321337207e-01,6.417087832389712920e-01,6.691700611934577880e-01,6.870094265539129497e-01,6.940875718586666521e-01,6.900862455123532024e-01,6.754962863542359752e-01,6.515359169085603863e-01,6.199992953169360943e-01,5.830353259527527587e-01,5.428567287176179201e-01,5.013793670198312125e-01
4.456617706673292045e-01,4.062053420033386320e-01,3.713531893976216858e-01,3.445482747829672343e-01,3.280385533923482755e-01,3.229671501946528300e-01,3.294746971205020358e-01,3.468138310781571643e-01,3.734758527595122279e-01,4.073295462361762875e-01,4.457721593456425713e-01,4.858925448675446845e-01,5.246464624900017970e-01,5.590440415660495876e-01,5.863494046601606113e-01,6.042924518848531434e-01,6.112928060273834507e-01,6.066959184665301485e-01,5.910213358794628169e-01,5.662231277387045347e-01,5.359624745991731221e-01,5.048299790832281309e-01,4.747643567634495243e-01,4.470903590834600094e-01,4.232159124994401833e-01,4.044469477613672481e-01,3.918381313815219036e-01,3.860794992902660816e-01,3.874189926790871930e-01,3.956208960309140488e-01,4.099601773376999603e-01,4.292527305052761810e-01,4.519215199454733600e-01,4.760986273555125603e-01,4.997632006846662867e-01,5.209153052881861923e-01,5.377856772685026820e-01,5.490813790036913611e-01,5.542673568632089376e-01,5.538839011109009114e-01,5.499000079952741649e-01,5.459878606454849903e-01,5.459872356597272880e-01,5.518964662652631192e-01,5.640655372847173110e-01,5.816350320620472525e-01,6.029272361844364436e-01,6.257893980001152379e-01,6.478891459321072244e-01,6.669620625879003617e-01,6.810114156650448614e-01,6.884600456526768220e-01,6.882544103289669479e-01,6.799207860544952409e-01,6.635736258615521077e-01,6.398760743393648864e-01,6.099526393152487902e-01,5.752540203316868217e-01,5.373740939193309973e-01,4.978190556659347066e-01,4.577287190812048823e-01,4.172838246665261375e-01,3.755871521267603041e-01,3.328299510906040370e-01,2.902986338447943182e-01,2.499094417745890695e-01,2.138105798566419247e-01,1.840518192042676082e-01,1.623215676650947015e-01,1.497514084711124849e-01,1.467881069411052231e-01,1.531330852354792216e-01,1.677493651634785754e-01,1.889359790427925512e-01,2.144698486115521052e-01,2.418151319927188125e-01,2.684000387108622099e-01,2.919611127613287449e-01,3.109549837317991949e-01,3.250375859762427710e-01,3.356108458412512818e-01,3.464961829206879007e-01,3.625713152108976378e-01,3.864189603188136202e-01,4.183878947120008851e-01,4.572021975327530408e-01,5.005027052984650782e-01,5.453206774882815022e-01,5.884836730160152296e-01,6.269536375893488556e-01,6.580972019553026353e-01,6.798881910319816146e-01,6.910423439265956924e-01,6.910842448397550575e-01,6.803464648560404449e-01,6.599009146208475451e-01,6.314224079035052339e-01,5.969844360466719513e-01,5.587871533020014603e-01,5.188175730520876439e-01
4.370901118933436247e-01,3.999148988922913150e-01,3.676069247635966875e-01,3.437456087354482936e-01,3.306059929817750653e-01,3.292776018651565328e-01,3.397923782924255343e-01,3.612616971829637480e-01,3.920224560496901045e-01,4.297922426927417994e-01,4.718335800058484630e-01,5.151272478953984324e-01,5.565546823121981790e-01,5.930894513959243941e-01,6.219978087322685090e-01,6.410483237227764253e-01,6.487305890673753517e-01,6.444830053596001251e-01,6.289296427945052503e-01,6.041261799892801987e-01,5.738149199165449854e-01,5.425832599565950654e-01,5.121935018763607017e-01,4.838393041396011340e-01,4.588812638686273759e-01,4.386428187920810018e-01,4.242437885987988544e-01,4.164715556977632849e-01,4.156898853841369257e-01,4.217853854113841061e-01,4.341516049694764678e-01,4.517107730691850564e-01,4.729731763324573346e-01,4.961341761888787283e-01,5.192088654782224255e-01,5.402043644590805993e-01,5.573297562235843827e-01,5.692436615182075998e-01,5.753394529706555849e-01,5.760681087228424202e-01,5.732987054699490992e-01,5.705620624925885620e-01,5.714318862633601670e-01,5.776824090581197391e-01,5.895214310819395509e-01,6.060217239327347905e-01,6.255040370299593810e-01,6.458717070083668244e-01,6.648968700768383977e-01,6.804582773422778175e-01,6.907307130985715915e-01,6.943260160806171699e-01,6.903857036834171179e-01,6.786251991462391997e-01,6.593296617018444827e-01,6.333014196907805760e-01,6.017590066407414451e-01,5.661878003109962476e-01,5.281422647018801930e-01,4.889997950293575313e-01,4.496661656646450123e-01,4.100444159160048785e-01,3.691700648416779695e-01,3.272052590377024783e-01,2.853880561816595773e-01,2.455782150497757832e-01,2.098686629064523135e-01,1.802626402662190208e-01,1.584165230281086578e-01,1.454483219824594664e-01,1.418118596901377371e-01,1.472366247341873602e-01,1.607333033439015679e-01,1.806649883913188648e-01,2.048840657601431470e-01,2.309347780870881495e-01,2.563214658756447495e-01,2.788424859822729585e-01,2.969898074750162986e-01,3.104142848645455866e-01,3.204566087076171077e-01,3.308390394170482307e-01,3.464453057512495993e-01,3.699360769654941317e-01,4.017651170235144731e-01,4.407686667176986539e-01,4.846904224653770799e-01,5.306421117812006871e-01,5.754996654256060440e-01,6.162349862293783342e-01,6.501833145942975678e-01,6.752461906698784544e-01,6.900300132062009428e-01,6.939201950828295384e-01,6.870909155138265056e-01,6.704504689288519614e-01,6.455222105303553004e-01,6.142610985268606161e-01,5.788058330423361264e-01,5.411665917016605931e-01
4.227198194956551247e-01,3.888492846463960650e-01,3.601342143833131115e-01,3.402858987725390638e-01,3.315792817548836036e-01,3.350101785572152657e-01,3.504570792993030870e-01,3.768475387961169876e-01,4.123291525555866643e-01,4.544451189718204387e-01,5.003143877137822271e-01,5.468163943094281887e-01,5.907803809253019400e-01,6.291793033415888914e-01,6.593283241226295388e-01,6.790878919828933213e-01,6.870714073484071038e-01,6.828574741136483883e-01,6.672067375938917078e-01,6.422833086730224128e-01,6.118807741467990891e-01,5.805008173848194009e-01,5.496142150172446117e-01,5.202089516142224257e-01,4.935679678674648185e-01,4.710367441712607350e-01,4.538310536102590498e-01,4.428848843540225677e-01,4.387385314583515106e-01,4.414668580733778769e-01,4.506477260584290656e-01,4.653705960036641498e-01,4.842852966584774710e-01,5.056909637666748836e-01,5.276651483084194849e-01,5.482330941489473863e-01,5.655771850940541912e-01,5.782865613523519022e-01,5.856469054042948708e-01,5.879703972779796173e-01,5.869658392317103068e-01,5.859599394931964689e-01,5.882175727438824220e-01,5.952581138015835549e-01,6.071245908572436845e-01,6.228077546964940758e-01,6.406209443140523652e-01,6.585257489209550563e-01,6.744084663446324734e-01,6.863073578218166215e-01,6.925906991842892824e-01,6.920856284374666823e-01,6.841577897318219526e-01,6.687417737271439400e-01,6.463223543496353640e-01,6.178665219418467691e-01,5.847063128054484915e-01,5.483724351368414185e-01,5.103786913556020988e-01,4.719571968257691985e-01,4.337443949699636980e-01,3.953482018581460644e-01,3.558425267199004649e-01,3.154489780700105439e-01,2.753954332107787506e-01,2.374832287378602080e-01,2.037174205596302412e-01,1.760001134300812620e-01,1.558868599952459300e-01,1.444061293531541113e-01,1.419418451273155579e-01,1.481789930537352196e-01,1.621122980814558578e-01,1.821179709866314056e-01,2.060885245001287946e-01,2.316306589486610279e-01,2.563262174094479429e-01,2.780562103784074979e-01,2.953879099518745832e-01,3.080250135218561280e-01,3.173208769848042121e-01,3.269412766467406639e-01,3.416753828131617876e-01,3.641846857490321776e-01,3.950091848858869326e-01,4.331220902444122833e-01,4.764250514321336505e-01,5.221839142162119085e-01,5.674050046713428053e-01,6.091519409027708054e-01,6.448029723444028694e-01,6.722488466320323264e-01,6.900312040516696221e-01,6.974214995629800518e-01,6.944404523978285892e-01,6.818180232339320357e-01,6.608939189436162653e-01,6.334586249176850092e-01,6.015349649643895180e-01,5.671001887835113164e-01
4.037355653783432086e-01,3.741662315668812244e-01,3.500431484169682639e-01,3.351893691284210663e-01,3.318439195531789343e-01,3.408660354826484884e-01,3.619381193685494713e-01,3.937674164772613783e-01,4.342864104776705259e-01,4.808519384625188353e-01,5.304430254032532766e-01,5.798574380383759719e-01,6.259069581952957373e-01,6.656113755456797287e-01,6.963911997943063037e-01,7.162590923014213740e-01,7.240100171385899230e-01,7.194101115780542344e-01,7.033842760155882834e-01,6.782024833268608388e-01,6.476648076572888435e-01,6.160905952713019440e-01,5.845515704118531275e-01,5.537650305097201464e-01,5.249112843253680438e-01,4.993641392388848965e-01,4.784648630425047955e-01,4.633396202357217830e-01,4.547603828229918044e-01,4.530493156140240618e-01,4.580266360266615489e-01,4.690019483923512644e-01,4.848090527642029968e-01,5.038842282276373430e-01,5.243879907136235197e-01,5.443703253145056875e-01,5.619793931024185119e-01,5.757137124502925696e-01,5.847178148554472710e-01,5.891213752657767921e-01,5.904218169085198031e-01,5.916917065003650666e-01,5.958569930418343708e-01,6.041604726263495317e-01,6.164632563394194520e-01,6.316621361263257128e-01,6.480566933776341632e-01,6.636661502325317263e-01,6.764959635999893139e-01,6.847541618977479594e-01,6.870174245091345000e-01,6.823469039576983697e-01,6.703537907996771628e-01,6.512146212342855289e-01,6.256363274318310630e-01,5.947710305796549690e-01,5.600805766458977208e-01,5.231508148610924946e-01,4.854556189175799896e-01,4.480706508867534077e-01,4.113368678541248213e-01,3.745582350245442727e-01,3.369462577548294480e-01,2.988631525358498853e-01,2.615607193747355175e-01,2.267787024843700983e-01,1.964028136796209800e-01,1.721824184803020519e-01,1.555078849208670622e-01,1.472475950668397093e-01,1.476446192379738120e-01,1.562730529381493039e-01,1.720540164919993065e-01,1.933313173882717506e-01,2.180067753299229083e-01,2.437352099909463887e-01,2.681790914799323522e-01,2.893228535103620214e-01,3.058468692776333819e-01,3.175610900428254557e-01,3.258983464231865468e-01,3.345011236152597989e-01,3.479544068842416182e-01,3.688365457782151191e-01,3.977503831920723987e-01,4.338283510062377890e-01,4.751845348377750078e-01,5.193137079038797621e-01,5.634373339977527539e-01,6.047965395768636343e-01,6.408920549635923614e-01,6.696711246582581767e-01,6.896613867645324802e-01,7.000517215272327176e-01,7.007200689825064943e-01,6.922082157203944819e-01,6.756435507597782220e-01,6.526077905357156039e-01,6.249526729991558005e-01,5.945626208290409886e-01
3.818123600160473474e-01,3.574330915859732505e-01,3.387680204128845074e-01,3.297161953083706520e-01,3.324381144902699980e-01,3.476138434431255142e-01,3.746927518068592922e-01,4.121348692936680491e-01,4.576438606331370562e-01,5.083916195455739917e-01,5.612344817435626076e-01,6.129210569617357107e-01,6.602916800147672349e-01,7.004694808835847386e-01,7.310430738298013820e-01,7.502408655383668856e-01,7.570969822884378031e-01,7.516088161524689948e-01,7.348861902235207522e-01,7.092921428707936737e-01,6.785753310233734181e-01,6.467680128615156399e-01,6.144521413882562122e-01,5.820250066274463840e-01,5.505471989910368791e-01,5.214285878228582805e-01,4.961617745254398026e-01,4.761030202698669500e-01,4.623006482886763413e-01,4.553709207517894764e-01,4.554213902254846680e-01,4.620217257144067502e-01,4.742220132866156179e-01,4.906185312816724320e-01,5.094670001017648220e-01,5.288433065858691995e-01,5.468517029669524021e-01,5.618804804122109475e-01,5.729051171463478420e-01,5.798389011578903851e-01,5.839310274885427532e-01,5.879679103193665712e-01,5.945228885733973012e-01,6.045521824051353077e-01,6.177252194947242536e-01,6.328363472798940181e-01,6.481650126674191048e-01,6.617844092240854348e-01,6.718185918471756279e-01,6.766480589144615587e-01,6.750638019137145118e-01,6.663698225517247220e-01,6.504341173428366263e-01,6.276881296769940555e-01,5.990746693673012491e-01,5.659442996770946976e-01,5.299001918265282551e-01,4.925914469786726868e-01,4.554548857051253785e-01,4.194053049311352033e-01,3.844742023602392145e-01,3.496629933932469125e-01,3.144050908997536031e-01,2.792698987999827076e-01,2.455600629136012181e-01,2.149494462151431140e-01,1.891766436172948318e-01,1.697940362820384297e-01,1.579723854596517540e-01,1.543609658555685493e-01,1.590032385250954028e-01,1.713080632959887717e-01,1.900764507188885677e-01,2.135838535456112963e-01,2.397179977353005864e-01,2.661722529884379407e-01,2.906945428087090444e-01,3.113917940927307670e-01,3.270899262476333891e-01,3.377493798365086008e-01,3.449361847517044000e-01,3.522896129320939873e-01,3.640793380224557896e-01,3.827155757930209012e-01,4.088372953719894842e-01,4.417538308150714688e-01,4.798412578298666964e-01,5.208935356550865592e-01,5.624284140946115285e-01,6.019481057063944540e-01,6.371547231461986982e-01,6.661204816661774331e-01,6.874126667682931568e-01,7.001733670125764863e-01,7.041539719802253350e-01,6.997044353915433668e-01,6.877173033787177259e-01,6.695265079134375963e-01,6.467609253893519261e-01,6.211527003593670937e-01
3.588816708880333550e-01,3.404096269733040137e-01,3.278721789425137478e-01,3.251948437163751371e-01,3.344128579415384661e-01,3.559877088994489736e-01,3.891071812412495445e-01,4.319689195487282918e-01,4.820475067213116915e-01,5.363450581891024971e-01,5.916253319519632070e-01,6.446313544446438115e-01,6.922865622279564812e-01,7.318794595059919805e-01,7.612317914693861320e-01,7.788502334646283387e-01,7.840615959894128295e-01,7.771315455140421768e-01,7.593668411288667652e-01,7.332010870177806394e-01,7.022640007577514165e-01,6.701947160911542190e-01,6.370182382423199563e-01,6.027821055995503663e-01,5.684194212266808766e-01,5.353848256215730794e-01,5.053425090732054370e-01,4.799062636173638263e-01,4.604315745909287050e-01,4.478597517847611731e-01,4.426141001951881537e-01,4.445481303740843604e-01,4.529458083775542154e-01,4.665738453132108332e-01,4.837860264860543436e-01,5.026795801429473354e-01,5.213035858156900293e-01,5.379194222626928479e-01,5.513132550092466611e-01,5.611605634863944259e-01,5.684427077683971152e-01,5.756487436210049324e-01,5.850036108422670411e-01,5.971797570407426647e-01,6.116534526200372301e-01,6.271122607849298758e-01,6.418095196855995166e-01,6.538658366999484661e-01,6.615175948540249484e-01,6.633124713805429451e-01,6.582519684155007100e-01,6.458809558328967304e-01,6.263242262175450215e-01,6.002700619759867573e-01,5.689008145855022347e-01,5.337704959812185068e-01,4.966293820813170168e-01,4.591956284503390107e-01,4.228738981005882303e-01,3.884210014316318293e-01,3.555585483079011233e-01,3.229972854436991558e-01,2.904557163571305223e-01,2.587574275768124155e-01,2.292735811523844425e-01,2.036070048392051024e-01,1.833271163116173552e-01,1.697556814047808393e-01,1.638034063850681010e-01,1.658573642490295263e-01,1.757192550509233675e-01,1.925945002588131116e-01,2.151321711392300273e-01,2.415157511704028870e-01,2.696047324840536441e-01,2.971270463357607583e-01,3.219223276038868931e-01,3.422360133170741503e-01,3.570642752103041495e-01,3.665497863095304454e-01,3.724283215448667694e-01,3.783410936283870818e-01,3.881373383162715074e-01,4.039788535987495766e-01,4.265123951695680704e-01,4.552359509490607747e-01,4.888286778468960980e-01,5.254445007645048848e-01,5.629693738371828182e-01,5.992422039158780134e-01,6.322394362886515351e-01,6.602233026418179440e-01,6.818537312607659828e-01,6.962639194704548506e-01,7.030995683155930598e-01,7.025217794804925475e-01,6.951736144486013735e-01,6.821103159017185558e-01,6.646931913588821628e-01,6.444471590549410989e-01
3.369299633172062602e-01,3.248630972838723596e-01,3.188823691342854705e-01,3.228799346531339709e-01,3.387181122712922821e-01,3.666062396990540928e-01,4.054522377165450941e-01,4.531888811213160007e-01,5.070747768331149707e-01,5.639700491558401474e-01,6.205867321966723749e-01,6.737138694423872032e-01,7.204173204928470131e-01,7.582142749516728175e-01,7.852224734740967937e-01,8.002841359719944370e-01,8.030645969760944469e-01,7.941256481553717883e-01,7.749735879936178184e-01,7.480819786231945878e-01,7.168891098159626551e-01,6.845408775350978470e-01,6.504661026237801291e-01,6.143542872862091109e-01,5.770130584687476194e-01,5.399509131429306441e-01,5.050169656339638102e-01,4.740976969947115482e-01,4.488707064251722390e-01,4.306154647374436650e-01,4.200810698661767706e-01,4.174110044245180617e-01,4.221248953055419806e-01,4.331572753291704214e-01,4.489533469345829420e-01,4.676217479181140058e-01,4.871443192166406977e-01,5.056428747364585252e-01,5.217029732276452503e-01,5.347546922039165818e-01,5.455104039079665679e-01,5.561720213818848180e-01,5.686377814795631203e-01,5.833116840743259868e-01,5.994837033626507772e-01,6.157346904062994675e-01,6.302867057687702168e-01,6.412987822460629594e-01,6.471081176917636846e-01,6.464166979364440735e-01,6.384233498013796027e-01,6.229012242065827820e-01,6.002207093731541931e-01,5.713177741199502169e-01,5.376077412545678946e-01,5.008444910586455912e-01,4.629250948674807353e-01,4.256398787439662490e-01,3.903679172468414449e-01,3.577179572932594476e-01,3.271147721156748012e-01,2.969999214902557250e-01,2.674149112277833251e-01,2.394618665121691914e-01,2.145877478197142363e-01,1.943186845211324343e-01,1.800400273509734639e-01,1.728221197444420043e-01,1.732917880416135481e-01,1.815495505590488945e-01,1.971325455288038542e-01,2.190231779048383287e-01,2.457034850368206291e-01,2.752552212113300034e-01,3.055056610604557910e-01,3.342191218377952300e-01,3.593342045618461156e-01,3.792467540267985271e-01,3.931385376807207677e-01,4.013516433711504239e-01,4.058085959580702839e-01,4.101425327850470870e-01,4.176902217886199753e-01,4.302948865281828739e-01,4.485830425747037720e-01,4.722463980323277633e-01,5.002970879667993920e-01,5.312962427407065258e-01,5.635558902555408700e-01,5.953141921005838944e-01,6.248840136086087904e-01,6.507748278184032342e-01,6.717879533441135642e-01,6.870851261514060448e-01,6.962304052404536536e-01,6.992054122357367341e-01,6.963979048826671736e-01,6.885636844510331089e-01,6.767618370452610499e-01,6.622633088215013064e-01
3.178296637140647918e-01,3.124156425475562160e-01,3.131545641062943308e-01,3.238396286844426042e-01,3.461151112974052979e-01,3.799127564617228447e-01,4.238537076493082423e-01,4.756159714160234087e-01,5.322674162045964996e-01,5.905643058218794650e-01,6.472153675904462888e-01,6.991113951745315802e-01,7.435203860803100140e-01,7.782482138305155672e-01,8.017648348134021052e-01,8.132960298060452065e-01,8.128806801719805630e-01,8.013935787331891714e-01,7.805337753164159897e-01,7.527784569738372733e-01,7.213023628780604879e-01,6.886710449572019943e-01,6.537080584429153518e-01,6.157581715382550724e-01,5.755149674551593986e-01,5.345495981998303892e-01,4.949017078085335974e-01,4.587325250338212812e-01,4.280401254811753153e-01,4.044368631960728044e-01,3.889889717014724524e-01,3.821183344857232433e-01,3.835664249408941018e-01,3.924204157515249758e-01,4.072014577338003982e-01,4.260151281251429167e-01,4.467640483242299454e-01,4.674226710814306518e-01,4.863742371396646003e-01,5.028099013256839278e-01,5.171900280917735016e-01,5.314598198516351513e-01,5.472280457117754127e-01,5.646567256138683710e-01,5.828640566666954959e-01,6.003285598947480928e-01,6.152370096960948498e-01,6.257761460095098149e-01,6.303681691908645801e-01,6.278500175987821175e-01,6.175964278895543780e-01,5.995867780213218756e-01,5.744157129675164786e-01,5.432475531395660751e-01,5.077144855188642225e-01,4.697585374979984518e-01,4.314173334312457753e-01,3.945536338943283483e-01,3.605286576534327270e-01,3.298191863434898341e-01,3.015784518557221294e-01,2.740081512942533215e-01,2.474832545200047751e-01,2.233848830136770380e-01,2.032323923977549796e-01,1.884694605228981468e-01,1.802905679951419815e-01,1.795078711439091756e-01,1.864584674308285284e-01,2.009520532993655517e-01,2.222589744652615218e-01,2.491386686477833901e-01,2.799085007417807525e-01,3.125529904305558992e-01,3.448734322395398122e-01,3.746779080307822141e-01,4.000116919382463165e-01,4.194280477439169541e-01,4.322994186947144435e-01,4.391690097602266030e-01,4.421427623312368937e-01,4.448216059713030468e-01,4.499572517446815967e-01,4.590191529317725894e-01,4.725878839101211315e-01,4.905470352467162232e-01,5.122585138216172451e-01,5.367212479829077676e-01,5.627132977329741825e-01,5.889173699461163203e-01,6.140297386174801142e-01,6.368525701433204178e-01,6.563696536325899222e-01,6.718055362498539518e-01,6.826680635895359117e-01,6.887743250814867269e-01,6.902600044278817126e-01,6.875721350714457669e-01,6.814452606950051061e-01,6.728610007523667669e-01
3.032025452256010278e-01,3.044239627001794624e-01,3.117712862978307964e-01,3.288725363799618329e-01,3.571147734934417284e-01,3.961366496235141921e-01,4.442773216382110424e-01,4.989817269242664555e-01,5.571622212145332931e-01,6.155165786068994560e-01,6.708023537747063170e-01,7.200676063686677342e-01,7.608379876102903117e-01,7.912601890767950730e-01,8.102017536775402151e-01,8.173072488219454979e-01,8.130108017789156039e-01,7.985049972277681318e-01,7.756661370006587841e-01,7.469358620165128526e-01,7.151591364064527889e-01,6.822535384609064169e-01,6.464586192978163393e-01,6.068079153251928481e-01,5.639007822190534869e-01,5.193788679621205162e-01,4.754699227378738069e-01,4.345989456799582706e-01,3.990666684769448302e-01,3.707953758324453175e-01,3.511420627805827421e-01,3.407789288568139341e-01,3.396412091241087783e-01,3.469423420544812675e-01,3.612564742658763151e-01,3.806683021144103285e-01,4.029902501419657113e-01,4.260469863791397360e-01,4.480272745035474569e-01,4.679031628534801035e-01,4.859165102969151828e-01,5.038037780470872029e-01,5.229339192567473704e-01,5.432623635828632835e-01,5.637564636462026879e-01,5.828006931173130845e-01,5.985439801267147253e-01,6.091891759992972277e-01,6.132246593129282441e-01,6.095980752812695247e-01,5.978322104608014831e-01,5.780830027820560435e-01,5.511396869050605440e-01,5.183670748989861465e-01,4.815899722460098564e-01,4.429197291693796057e-01,4.045229272856929459e-01,3.683322015813822459e-01,3.356991977134088367e-01,3.069896646341631063e-01,2.811206825405792586e-01,2.560888679546503011e-01,2.325853275185749969e-01,2.122471073297060029e-01,1.966523115033547708e-01,1.871567666152008924e-01,1.847657521579248174e-01,1.900407970120623624e-01,2.030415419310813152e-01,2.233026680406795805e-01,2.498458913523065317e-01,2.812270232909053203e-01,3.156180972368774484e-01,3.509245610822700479e-01,3.849375358011840054e-01,4.155211400344063222e-01,4.408348806882616544e-01,4.595911095476884478e-01,4.713475459035336157e-01,4.768348651940773619e-01,4.783193536607678320e-01,4.793335764937080024e-01,4.819962855634927212e-01,4.873669146958577447e-01,4.959586560731454874e-01,5.078384988755639817e-01,5.227207440782803971e-01,5.400539954043492852e-01,5.591016264334722763e-01,5.790157238665967210e-01,5.989045069463444504e-01,6.178932230332752074e-01,6.351785193379870798e-01,6.500762908090468306e-01,6.620630041767584517e-01,6.708104981527632793e-01,6.762142597854748916e-01,6.784151769713488989e-01,6.778147671219858506e-01,6.750838819870693674e-01
2.943155357891435453e-01,3.018912932561293450e-01,3.154704186997524529e-01,3.384541514223702863e-01,3.719422279282658117e-01,4.152758821389081478e-01,4.665283991308501466e-01,5.229432223962605653e-01,5.813196146260929398e-01,6.383458720158902144e-01,6.908800920942254065e-01,7.361784950737776390e-01,7.720712987250443193e-01,7.970861467726892968e-01,8.105190908145267770e-01,8.124531257631423253e-01,8.037242788101465196e-01,7.858352519130676894e-01,7.608166178048793027e-01,7.310355695261645526e-01,6.989522234799135925e-01,6.657933962406663575e-01,6.292645524222538755e-01,5.881390412286136016e-01,5.429486188490307841e-01,4.954116905650146618e-01,4.479338521594190548e-01,4.031807306278089031e-01,3.637231241920703684e-01,3.317544416162658827e-01,3.088804408247346478e-01,2.959812668224362509e-01,2.931457889175412279e-01,2.996782372462646893e-01,3.141771385999448940e-01,3.346865515543671621e-01,3.589196009013326250e-01,3.845543113824704817e-01,4.096017407252955933e-01,4.328464119815126354e-01,4.543590451675615927e-01,4.757290617734069027e-01,4.981437286476966264e-01,5.213933892892055333e-01,5.443202373848016196e-01,5.652262254694087051e-01,5.822215268663989418e-01,5.935135509084099592e-01,5.976365114385908672e-01,5.936215485922752277e-01,5.811074038590811064e-01,5.603916484254392039e-01,5.324224647975474012e-01,4.987309817047529958e-01,4.613041622833635724e-01,4.223982455408821224e-01,3.842927411006726857e-01,3.489849772270523509e-01,3.178252021308104469e-01,2.910922385551524272e-01,2.675096916420775517e-01,2.449065780772297085e-01,2.242463995136898536e-01,2.073773558769068381e-01,1.959134923004263173e-01,1.911181660582792763e-01,1.938174643504265715e-01,2.043435729412546309e-01,2.225080956511246710e-01,2.476053247009737945e-01,2.784454619099706596e-01,3.134177907462232238e-01,3.505837992305377293e-01,3.878002536932335098e-01,4.228722233840079281e-01,4.537360559348572742e-01,4.786723036760466288e-01,4.965486008051360756e-01,5.070924914090556568e-01,5.111942083392420066e-01,5.112394029398140693e-01,5.106469634555887982e-01,5.108832669333741583e-01,5.125833007889093462e-01,5.161773949323823496e-01,5.219014801794982228e-01,5.298104944855247522e-01,5.397949370023131799e-01,5.516005699582935407e-01,5.648512683614482777e-01,5.790750175252588061e-01,5.937330584176292447e-01,6.082521808327859825e-01,6.220601643861504160e-01,6.346243673321926293e-01,6.454934632052548027e-01,6.543423252833542314e-01,6.610200588749597372e-01,6.656011814287464690e-01,6.684399504663233182e-01
2.920089485911447347e-01,3.054116772225283771e-01,3.246055059836978618e-01,3.527128070869022247e-01,3.905274529431372321e-01,4.371006378411672610e-01,4.902661499470079565e-01,5.471050936238698315e-01,6.043500620725649197e-01,6.587287602923728169e-01,7.072470783623697743e-01,7.474116150432195127e-01,7.773916516994238135e-01,7.961205765420349412e-01,8.033367591918320061e-01,7.995638755629559391e-01,7.860306830670062972e-01,7.645302461376011216e-01,7.372186120753969618e-01,7.063529372135710638e-01,6.739690634037642791e-01,6.405888689342021936e-01,6.034588991541443015e-01,5.611572173009984343e-01,5.141794570159079480e-01,4.643249462739710287e-01,4.141596956322636802e-01,3.665562507956701688e-01,3.243104095005164278e-01,2.898348027160079776e-01,2.649293401634739697e-01,2.506285201534153573e-01,2.471256037403579131e-01,2.537736531955104291e-01,2.691634347972270969e-01,2.912781859392754580e-01,3.177252465569087581e-01,3.460445548707431485e-01,3.740940074484394029e-01,4.005116835841912026e-01,4.252549339960151609e-01,4.498369901721809838e-01,4.753256449852722998e-01,5.013906373142873463e-01,5.267775156620536636e-01,5.497196365685821373e-01,5.682892609634385694e-01,5.806877484571217884e-01,5.854748495714597878e-01,5.817370959090147897e-01,5.691952882615023412e-01,5.482510826572229989e-01,5.199726743475061586e-01,4.860195797321668065e-01,4.485065162239754710e-01,4.098063800521381528e-01,3.722923220047925086e-01,3.380189211105141256e-01,3.083424562588372719e-01,2.834802757597832956e-01,2.620092648424102721e-01,2.416281382223662288e-01,2.235055988898008994e-01,2.096376548163304265e-01,2.016439479435604698e-01,2.006919041522084168e-01,2.074461285849890368e-01,2.220430463232593299e-01,2.440907884174255971e-01,2.726943232711098175e-01,3.065058333790785516e-01,3.438003374189321781e-01,3.825765576965541870e-01,4.206830329453224993e-01,4.559694764790808708e-01,4.864633796988726000e-01,5.105718609534332098e-01,5.273087597534453774e-01,5.365469763395520619e-01,5.392960566041393733e-01,5.380050223668653153e-01,5.359279986269434026e-01,5.338900655311805687e-01,5.321106618358040219e-01,5.309290478793053936e-01,5.307306926042557604e-01,5.318857054869350343e-01,5.346993133747742766e-01,5.393743822316149350e-01,5.459859837907798941e-01,5.544680071159611146e-01,5.646118150699207527e-01,5.760769456910074249e-01,5.884138584774847303e-01,6.010987255796784723e-01,6.135802678999344728e-01,6.253386361003923088e-01,6.359563365185735284e-01,6.452012019907846785e-01,6.531214075833348121e-01
2.966571349309111150e-01,3.151465332549563403e-01,3.391375455301404718e-01,3.714351560912674821e-01,4.125220275662907499e-01,4.611781154609106981e-01,5.150326326583527514e-01,5.710483638343246682e-01,6.259383297871551344e-01,6.765148016831116218e-01,7.199706652168975651e-01,7.540931346873323005e-01,7.774098169882079912e-01,7.892671255143287601e-01,7.898410439827285856e-01,7.800802401690717369e-01,7.615815295592286427e-01,7.363976889160370742e-01,7.067776197612398725e-01,6.748388617726049921e-01,6.421724560962235318e-01,6.086114625755739693e-01,5.710389519246137358e-01,5.279119882899188099e-01,4.797241982659780635e-01,4.283575482060372752e-01,3.765149859311968106e-01,3.272339468377654104e-01,2.834807244028654805e-01,2.478257050882929080e-01,2.221994676426315152e-01,2.077297468016199300e-01,2.046592613867745936e-01,2.123444068022640741e-01,2.293348119300388233e-01,2.535337604232146824e-01,2.824394763977099432e-01,3.134672745221360191e-01,3.443525745059420884e-01,3.736347799858152907e-01,4.012220218103320080e-01,4.286263247964578471e-01,4.568578111176487266e-01,4.855098637223025371e-01,5.132606906064199892e-01,5.382904042299404557e-01,5.586359236337798961e-01,5.724836992575660366e-01,5.784002604580760210e-01,5.755005857283723714e-01,5.635542956176392559e-01,5.430296683517191747e-01,5.150754781543496197e-01,4.814406562690988767e-01,4.443317746820032998e-01,4.062083525449021737e-01,3.695159852994753247e-01,3.363572965019789862e-01,3.081007123486830812e-01,2.849270589020037603e-01,2.653139820173446850e-01,2.468642576313571924e-01,2.308655695743652980e-01,2.193840638781281716e-01,2.140091650528717360e-01,2.158103423566803680e-01,2.253149982397752160e-01,2.425074789636788297e-01,2.668492073952654642e-01,2.973199379756970018e-01,3.324801338642464077e-01,3.705544662570058323e-01,4.095364358804807758e-01,4.473141166600714813e-01,4.818170215634386411e-01,5.111840906187578026e-01,5.339528011078570335e-01,5.492693999342417310e-01,5.571202581660044117e-01,5.585843477536268642e-01,5.561068404226559014e-01,5.527238721247851316e-01,5.486606641453741773e-01,5.437531957201273691e-01,5.382494905347541270e-01,5.326615243205287120e-01,5.276369734001198353e-01,5.238508041836900109e-01,5.219167036152655426e-01,5.223183505693763662e-01,5.253605281979658592e-01,5.311400772275710613e-01,5.395366902067729731e-01,5.502235467039163774e-01,5.626977894551008497e-01,5.763308414624407350e-01,5.904385640425966475e-01,6.043712558255744938e-01,6.176234927037982381e-01,6.299638087314498591e-01
3.081615594892785359e-01,3.308335200547274368e-01,3.586582683552854145e-01,3.941011738159581057e-01,4.373419956650026474e-01,4.869184683029064153e-01,5.402963698245867308e-01,5.943660736948126466e-01,6.458655835768495335e-01,6.917300513143244123e-01,7.293677780663143650e-01,7.568626985956574682e-01,7.731033487104831403e-01,7.778383158589677882e-01,7.716581728773097559e-01,7.559038948909293509e-01,7.325017593688868400e-01,7.037247293315262997e-01,6.718803197113388803e-01,6.389249468670497034e-01,6.060047612509262827e-01,5.723095301490719322e-01,5.344681877676571435e-01,4.908954582276265910e-01,4.421174010807739641e-01,3.900977526076574442e-01,3.376484366095859335e-01,2.879242446946807532e-01,2.440016860580076774e-01,2.085420067557831325e-01,1.835383784736520363e-01,1.701472567890393861e-01,1.686039089275744585e-01,1.782221110135866760e-01,1.974780148146758063e-01,2.241781839803531073e-01,2.557117997747578308e-01,2.893870363034427573e-01,3.228516052342357279e-01,3.545974700121731771e-01,3.845497295685046391e-01,4.142932212127410918e-01,4.448375622486559489e-01,4.757407685897561689e-01,5.056418052748666847e-01,5.326832797232476935e-01,5.548709040154021777e-01,5.703697261995684942e-01,5.777371306239035276e-01,5.760926072943515219e-01,5.652242902582030881e-01,5.456322650133402785e-01,5.185086449431712818e-01,4.856544167772516851e-01,4.493330550775955223e-01,4.120609057506716133e-01,3.763343385850907996e-01,3.442936688149794699e-01,3.173238477090427057e-01,2.955919221853103296e-01,2.775212634515797361e-01,2.606477672313187166e-01,2.462786128465087876e-01,2.364633004348386525e-01,2.327221632200780488e-01,2.360262739802692078e-01,2.467950668840090400e-01,2.649116746948204648e-01,2.897559813436136888e-01,3.202553898692365730e-01,3.549533057271163639e-01,3.920953354659894030e-01,4.297332007727205916e-01,4.658463678852143852e-01,4.984813923734131569e-01,5.259089792883877568e-01,5.467987586795154398e-01,5.604117764797486023e-01,5.668107007589723301e-01,5.670877433454565297e-01,5.636102968153879900e-01,5.591447669039352197e-01,5.533856932429175313e-01,5.458388442145046815e-01,5.366689476103387868e-01,5.264893760958326840e-01,5.161781151620149499e-01,5.067200135649222448e-01,4.990753162525396469e-01,4.940744797792866461e-01,4.923392702080512384e-01,4.942301434997714016e-01,4.998199083905633389e-01,5.088936717563964374e-01,5.209750664653167718e-01,5.353787617172164337e-01,5.512892558711509627e-01,5.678659517602023810e-01,5.843745144938925495e-01,6.003445117481401860e-01
3.259762980022309353e-01,3.518276970077184318e-01,3.824449099368080751e-01,4.199486848949374185e-01,4.642368428351414389e-01,5.136418895810768159e-01,5.655106200860342547e-01,6.167057149279386863e-01,6.640293290403385118e-01,7.045686726793826127e-01,7.359635846267859050e-01,7.565960976287829931e-01,7.657019960710699236e-01,7.634043658897348150e-01,7.506691367181762553e-01,7.291826162700097980e-01,7.011510169579635576e-01,6.690219747487612389e-01,6.351280602539943754e-01,6.012522820569808912e-01,5.681155822756147611e-01,5.343354117439323980e-01,4.964021583503988033e-01,4.527659243860397975e-01,4.040176927033406473e-01,3.521996586889453718e-01,3.002022617311121411e-01,2.512479161819287654e-01,2.084614418142831938e-01,1.745271937735932699e-01,1.514328920242934695e-01,1.403001502910796172e-01,1.413017044949113343e-01,1.536653406837716340e-01,1.757645224581843579e-01,2.052957178914893988e-01,2.395424259448760973e-01,2.757259023771728157e-01,3.114425851493949349e-01,3.451882193240518037e-01,3.769686814592090873e-01,4.085098431299403754e-01,4.408697399739490708e-01,4.736061628551844760e-01,5.053439171591057599e-01,5.342031843116958889e-01,5.581638457519371155e-01,5.753657693577423071e-01,5.843450583253467778e-01,5.842062625021586797e-01,5.747305521730686761e-01,5.564198543002172315e-01,5.304769512162226253e-01,4.987215417708666942e-01,4.634422649312400222e-01,4.271846858353448018e-01,3.924752442991586432e-01,3.614811657771559439e-01,3.356063347762895943e-01,3.150231307234263589e-01,2.981402262862509200e-01,2.824486549186460693e-01,2.691693145055990555e-01,2.602451638232566311e-01,2.570881665458118470e-01,2.605721214391791274e-01,2.710406000638652668e-01,2.883299919870346839e-01,3.118076575037720954e-01,3.404251878675371157e-01,3.727867730298183302e-01,4.072326768889794613e-01,4.419378200483018992e-01,4.750254700832229893e-01,5.046960393177686299e-01,5.293709901101832926e-01,5.478518476477520771e-01,5.594943202508214641e-01,5.643975271860111054e-01,5.636083339886289734e-01,5.593407952942706096e-01,5.540446820582588527e-01,5.469753129799880265e-01,5.373784606389592211e-01,5.253508179247526888e-01,5.115816844983993583e-01,4.971258666403147730e-01,4.832077904847978944e-01,4.710568286410932726e-01,4.617738402010156951e-01,4.562289241331404788e-01,4.549903860635565178e-01,4.582849184431830869e-01,4.659889941016502890e-01,4.776514731877434250e-01,4.925474234964113962e-01,5.097631541823385293e-01,5.283124628600783801e-01,5.472840960907556784e-01,5.660204232553276427e-01
3.491659573394619298e-01,3.771749810647490597e-01,4.095464709384317725e-01,4.480674131767125590e-01,4.923845860282028419e-01,5.406668434117195554e-01,5.901863071126741689e-01,6.378184675380568214e-01,6.804611930300121792e-01,7.153726477380093485e-01,7.404281180496056214e-01,7.542957475798029998e-01,7.565311807189982751e-01,7.475911147395257750e-01,7.287657604607952200e-01,7.020302114730216925e-01,6.698147219195483837e-01,6.346938928377644507e-01,5.989947670586155404e-01,5.643238326647058711e-01,5.310129350069970888e-01,4.971961233098730060e-01,4.593383365239485649e-01,4.159964625971211971e-01,3.678548577310118972e-01,3.170288980144203572e-01,2.664569677703544359e-01,2.193808846166347415e-01,1.789147612400714404e-01,1.477023038842161795e-01,1.276625475506877050e-01,1.198240279140712766e-01,1.242473899503925006e-01,1.400364332791647071e-01,1.654375942190107474e-01,1.980278645568582518e-01,2.349911470307094186e-01,2.734830475259845683e-01,3.110841039854387868e-01,3.463414520326553725e-01,3.793989273091093462e-01,4.121816390552719978e-01,4.458340997452105436e-01,4.799412794890772771e-01,5.131344286184694736e-01,5.435247270723432278e-01,5.690723424055285085e-01,5.878908964198404918e-01,5.984873404177935008e-01,5.999372390789136089e-01,5.919954629586510197e-01,5.751422896098915549e-01,5.505649133270688056e-01,5.200743635128756148e-01,4.859578316675753906e-01,4.507664070009119728e-01,4.170382206666211622e-01,3.869569986195406375e-01,3.619460230953213120e-01,3.421975027127324154e-01,3.261373511985769524e-01,3.112258671210362815e-01,2.984936573997289955e-01,2.896907599148837997e-01,2.860838872081634121e-01,2.884520150854753551e-01,2.970952880490116965e-01,3.118572415585180724e-01,3.321603411217912694e-01,3.570548382144048127e-01,3.852809430286655012e-01,4.153443140517962262e-01,4.456048644733490161e-01,4.743788854218466966e-01,5.000544860306529449e-01,5.212203503330724574e-01,5.368078109866775138e-01,5.462462398268661534e-01,5.496317552496451375e-01,5.479092464236494653e-01,5.430677143313796806e-01,5.372010449323534331e-01,5.292304426565176412e-01,5.182222485473024776e-01,5.042259035749961926e-01,4.879826304330958653e-01,4.706687145110376447e-01,4.536733840433059828e-01,4.384112894349238010e-01,4.261695817633193717e-01,4.179895904565766318e-01,4.145831001480615452e-01,4.162832267074308978e-01,4.230298924480181966e-01,4.343899005106012789e-01,4.496116084235476373e-01,4.677142008393414541e-01,4.876115614474870186e-01,5.082707440637955765e-01,5.289050428960493377e-01
3.764960179878837354e-01,4.057178998635175282e-01,4.389014678333512665e-01,4.775225550557942178e-01,5.210129759158331764e-01,5.674194414649449403e-01,6.139796054096167133e-01,6.576152406484739865e-01,6.953425463580182875e-01,7.245995856269699109e-01,7.434908536392217382e-01,7.509489764053997041e-01,7.468135400430300219e-01,7.318270506053174973e-01,7.075480244585287126e-01,6.761812092079849679e-01,6.403249351726633121e-01,6.026355974084043332e-01,5.654092682797300373e-01,5.300804405802661545e-01,4.966379012017770322e-01,4.628275940134489175e-01,4.251899193948560640e-01,3.824484639386498963e-01,3.354036034746941675e-01,2.862375134502093132e-01,2.379086176822254317e-01,1.936354754823483015e-01,1.564701071538328048e-01,1.289607578609681116e-01,1.129040998707725729e-01,1.091868731669984327e-01,1.177169644364479684e-01,1.374439244275982852e-01,1.664689236815374840e-01,2.022441466352100092e-01,2.418616240969737874e-01,2.824315040944652133e-01,3.215497610947757878e-01,3.578553435969402674e-01,3.916767600967318019e-01,4.251832814771215885e-01,4.596318117623969801e-01,4.946532289840142038e-01,5.289003842394263133e-01,5.604863439982302742e-01,5.873577216989392946e-01,6.076030986363758490e-01,6.196965341396895033e-01,6.226761650409965432e-01,6.162578944346429610e-01,6.008841697270914661e-01,5.777078499774299658e-01,5.485111625285042924e-01,5.155597489286738444e-01,4.813918001441890304e-01,4.485422810621935152e-01,4.192022442843486574e-01,3.948132332110820819e-01,3.755967744164546707e-01,3.600189593136590149e-01,3.455158766380800883e-01,3.328346193141156761e-01,3.234565259349679311e-01,3.184714210624605135e-01,3.185667536048017445e-01,3.240290195398070061e-01,3.347574689835812745e-01,3.502900976046596782e-01,3.698419223836073577e-01,3.923555417180796812e-01,4.165639798733400956e-01,4.410658157782379463e-01,4.644125961666449309e-01,4.852085330643515770e-01,5.022224856214225763e-01,5.145122262900101440e-01,5.215609913476286774e-01,5.234263157658848309e-01,5.209011524246741631e-01,5.156872756718265949e-01,5.094931120436757555e-01,5.010123376145465546e-01,4.892134714415460328e-01,4.741220432625024017e-01,4.565105330093625624e-01,4.376248617022129306e-01,4.189474337239250668e-01,4.019967304754271664e-01,3.881634554115978020e-01,3.785832304577869678e-01,3.740458438069603764e-01,3.749410490974690591e-01,3.812409159714431617e-01,3.925187320138108782e-01,4.080044560719419122e-01,4.266767229559160213e-01,4.473913995194145343e-01,4.690466921212401163e-01,4.907848054674575633e-01
4.065555989400729819e-01,4.362336410920834018e-01,4.694871734264927099e-01,5.075078761745362987e-01,5.495468119918340832e-01,5.935639652743278649e-01,6.367941829790220165e-01,6.762295169495238234e-01,7.090179677463872565e-01,7.327786299822578453e-01,7.458332391618190949e-01,7.473541200265407802e-01,7.374285364042296731e-01,7.170394425633803692e-01,6.879626360723297696e-01,6.525803121632118842e-01,6.136110196007148465e-01,5.737560180556403600e-01,5.352620369832642444e-01,4.994004360064968617e-01,4.658627668038489156e-01,4.320924521952277941e-01,3.947835879171612827e-01,3.528701227853831557e-01,3.072840020846522302e-01,2.602680276677069582e-01,2.147785671402513141e-01,1.739781121319727286e-01,1.408176856535913457e-01,1.177090985399401324e-01,1.062870549790773667e-01,1.072611071274301997e-01,1.203574588109697918e-01,1.443506183124181330e-01,1.771849002444860488e-01,2.161857765091426686e-01,2.583610763429176616e-01,3.007920354482325198e-01,3.411141942107648317e-01,3.780881450028459878e-01,4.122601285728861864e-01,4.460732685748459714e-01,4.809110552940081273e-01,5.164605991649959815e-01,5.514057351217207525e-01,5.838690583821539715e-01,6.117889185868895519e-01,6.332313722914909571e-01,6.466370938126307921e-01,6.510032444280141606e-01,6.460002999300941129e-01,6.320238365335727471e-01,6.101812751366920695e-01,5.822135839363121734e-01,5.503519393967787332e-01,5.171093455725769283e-01,4.850072117847753495e-01,4.562368886512581656e-01,4.322561624707452754e-01,4.133207079605967782e-01,3.979504993484144215e-01,3.835580167604090707e-01,3.705342562194025025e-01,3.600340555301174139e-01,3.529467552722737600e-01,3.498716459835770620e-01,3.511052763351464878e-01,3.566406222993809827e-01,3.661781173102652276e-01,3.791485434161133705e-01,3.947477834247530293e-01,4.119834340411470119e-01,4.297332799974543649e-01,4.468156291755308041e-01,4.620715087218669193e-01,4.744587221549670386e-01,4.831577674651649223e-01,4.876896162068801721e-01,4.880453535833111922e-01,4.848276795235723635e-01,4.794042707522616076e-01,4.730791588151315730e-01,4.644105135804136864e-01,4.523394335143554601e-01,4.368891497741846375e-01,4.188479287411867591e-01,3.994893264037099323e-01,3.803297945900967481e-01,3.629236390515455657e-01,3.486953293948958921e-01,3.388091608653451270e-01,3.340762679790907352e-01,3.348989900059002323e-01,3.412525883016096495e-01,3.527043154905483147e-01,3.684698364978923335e-01,3.875070014319454414e-01,4.086469703163456701e-01,4.307626896722033250e-01,4.529747209501628902e-01
4.379126449876699079e-01,4.676043980939098010e-01,5.005003472756203164e-01,5.375283314953640534e-01,5.777813704116557814e-01,6.191545342047747313e-01,6.588981008384634519e-01,6.940870007575107303e-01,7.220065490212220771e-01,7.404544648727746647e-01,7.479591787444579420e-01,7.439144266988004794e-01,7.286301323055822676e-01,7.032995759547325809e-01,6.698828516051131832e-01,6.309066109691879864e-01,5.891800951335780523e-01,5.474274536155012694e-01,5.078363508551008154e-01,4.715228601436534106e-01,4.379126449876699079e-01,4.042013599277911040e-01,3.672812230050470084e-01,3.263198762256181995e-01,2.823886094428076921e-01,2.377867012037099825e-01,1.954556729437119111e-01,1.584834565288301134e-01,1.296984751458803709e-01,1.113536375404816092e-01,1.049002456028931690e-01,1.108518153016871260e-01,1.287378109652537739e-01,1.571472929111402128e-01,1.938624784232248766e-01,2.360822160767235278e-01,2.807353734110316079e-01,3.248841379503981663e-01,3.662172315724343541e-01,4.036330382244583403e-01,4.379126449876699079e-01,4.717871884555497330e-01,5.067717064254130266e-01,5.426131993199989623e-01,5.780305700911648747e-01,6.111598624821311665e-01,6.399344371566521028e-01,6.624000856951030025e-01,6.769650824574958703e-01,6.825851743134118133e-01,6.788835082388593456e-01,6.662054967800524752e-01,6.456086213841130128e-01,6.187871735966929965e-01,5.879319341265215604e-01,5.555247897768708087e-01,5.240682882439479107e-01,4.957501307822058112e-01,4.720426027365794419e-01,4.532369419416382716e-01,4.379126449876699079e-01,4.234565816674186189e-01,4.098622708798829728e-01,3.979257240845089361e-01,3.883228879716629778e-01,3.815672350456811857e-01,3.779791489609641286e-01,3.776671046111155783e-01,3.805206429711258664e-01,3.862151406926002672e-01,3.942283744520319044e-01,4.038688800521190170e-01,4.143161062761268609e-01,4.246723634952948578e-01,4.340265670292871025e-01,4.415297752596892833e-01,4.464825224965484063e-01,4.484339465979585437e-01,4.472927113426891643e-01,4.434497235558627626e-01,4.379126449876699079e-01,4.315724581180903630e-01,4.229090184507472983e-01,4.108797314195134498e-01,3.955196516183732691e-01,3.776243360790840775e-01,3.584701746431805947e-01,3.395721974283222311e-01,3.224793593889861421e-01,3.086073019714996035e-01,2.991085918634209806e-01,2.947804368372604622e-01,2.960098786885461686e-01,3.027564632682332446e-01,3.145723876094565497e-01,3.306601241486271658e-01,3.499675220408721699e-01,3.713203855698167244e-01,3.935925296517135408e-01,4.159133124339114973e-01
4.695218010706285749e-01,4.991612241005435879e-01,5.316370658553833950e-01,5.676170490828699178e-01,6.060397111663061720e-01,6.447382450279914856e-01,6.809805914541309235e-01,7.119257828412397515e-01,7.349965383640424399e-01,7.481681105648664287e-01,7.501733833645303218e-01,7.406242214947272862e-01,7.200490713519032138e-01,6.898468132726282009e-01,6.521568652304656766e-01,6.096455379543318509e-01,5.652086414683549220e-01,5.215903430532249363e-01,4.809182766290410194e-01,4.441549035596499828e-01,4.104651248784840223e-01,3.768072087854725249e-01,3.402864422197466876e-01,3.003143290851351122e-01,2.581060589379529091e-01,2.160174388480474161e-01,1.769717189406773417e-01,1.439763116192276926e-01,1.197294044687565034e-01,1.063164668403772245e-01,1.049966501164741051e-01,1.160790816567529721e-01,1.388890524251242820e-01,1.718240982974218178e-01,2.124999750499547979e-01,2.579865270288932977e-01,3.051334495004899283e-01,3.509859446821325668e-01,3.932902714542326206e-01,4.310891887529496591e-01,4.654072926437455293e-01,4.992723119114965136e-01,5.343330842261656555e-01,5.703976093153511062e-01,6.062213781453908990e-01,6.399555205099358712e-01,6.695299196726601787e-01,6.929712940641018504e-01,7.086562460326406576e-01,7.154992776496074125e-01,7.130757735685294696e-01,7.016799509385096556e-01,6.823177763717380717e-01,6.566348499651402104e-01,6.267792563761576119e-01,5.951993829526626145e-01,5.643767049170077543e-01,5.364935376042095916e-01,5.130357557542669644e-01,4.943304798586085069e-01,4.790187295606834761e-01,4.644608086237190792e-01,4.502360211978199689e-01,4.367676823499024308e-01,4.245116782984038051e-01,4.138948695993009963e-01,4.052653112515108846e-01,3.988542897216702521e-01,3.947501768882973328e-01,3.928841009053336553e-01,3.930274339850666765e-01,3.948010971004331515e-01,3.976966816067030730e-01,4.011093877825446241e-01,4.043827802904694790e-01,4.068653605566592280e-01,4.079789560701718720e-01,4.072989266015302201e-01,4.046461873406885235e-01,4.001910489543843985e-01,3.945688745628655458e-01,3.882509893596848283e-01,3.796613331683401649e-01,3.677921063815965397e-01,3.526972673816226034e-01,3.351778416720823106e-01,3.165046116680980126e-01,2.981781871440889464e-01,2.817264563394842880e-01,2.685394177223080492e-01,2.597413924106407035e-01,2.561006172519538215e-01,2.579762185603188263e-01,2.653025665114897014e-01,2.776110101958604859e-01,2.940889933292962222e-01,3.136765506218387456e-01,3.352001848042849286e-01,3.575441243126420976e-01,3.798589616304544614e-01
5.010946079376271678e-01,5.307679931642478310e-01,5.629134692792587824e-01,5.979379845156461704e-01,6.346218280524400512e-01,6.707307756449301106e-01,7.035442564991332137e-01,7.302995413905111199e-01,7.485519520269409144e-01,7.564510916559349374e-01,7.529330969161139864e-01,7.378289109329297935e-01,7.118885776586399983e-01,6.767215574565342839e-01,6.346530639294104548e-01,5.884964219923037865e-01,5.412414471894663182e-01,4.956588462555970298e-01,4.538206389213260694e-01,4.165366009629439259e-01,3.827067284963894256e-01,3.490520232538668055e-01,3.129242321111614933e-01,2.740079159450913293e-01,2.336775886996309837e-01,1.943494777194153811e-01,1.589230520672167690e-01,1.303123188253997866e-01,1.110668873813498020e-01,1.030828016968775573e-01,1.074031405615988310e-01,1.241083858302904630e-01,1.522965586442204533e-01,1.901531236364540633e-01,2.351106611211360164e-01,2.840983072667466192e-01,3.338809622533351340e-01,3.814882664137266843e-01,4.247333443587047452e-01,4.628213170861726899e-01,4.970475820742847328e-01,5.307662175456673292e-01,5.657678206420913014e-01,6.019249101883018538e-01,6.380343835500603689e-01,6.722676452083200527e-01,7.025558889305241195e-01,7.269105335390162459e-01,7.436788122765757292e-01,7.517345157690690227e-01,7.506038885852196474e-01,7.405266793934975889e-01,7.224523447161282919e-01,6.979714062802189201e-01,6.691819619660047680e-01,6.384913503522139377e-01,6.083529688585500583e-01,5.809382454852960453e-01,5.577437641500357923e-01,5.391335436214903520e-01,5.238164700504820415e-01,5.091258615937137577e-01,4.941841929662443289e-01,4.790047669638506367e-01,4.638034156064801405e-01,4.489149689040573543e-01,4.347216822124326252e-01,4.215936221794713834e-01,4.098410112812834738e-01,3.996785309485940685e-01,3.912015832832544948e-01,3.843745113648944778e-01,3.790307781477149085e-01,3.748851039474208058e-01,3.715575625182958586e-01,3.686096357204169949e-01,3.655922267770100320e-01,3.621056321219460750e-01,3.578714718373778303e-01,3.528165786815189442e-01,3.471688457065605360e-01,3.409576661963475419e-01,3.326105804535872679e-01,3.212058521268597033e-01,3.068376265774295231e-01,2.903099749734325830e-01,2.728677026916347947e-01,2.559639220267641568e-01,2.410643892084176898e-01,2.294886057255387801e-01,2.222876839584708719e-01,2.201589771185829825e-01,2.233974734954690955e-01,2.318839550117202108e-01,2.451099200852711046e-01,2.622392707993189132e-01,2.822067643798167880e-01,3.038532289805379039e-01,3.260975437757176465e-01,3.481453833602644599e-01
5.318426224454703144e-01,5.616988851425056550e-01,5.936781003336973894e-01,6.279318858769463718e-01,6.630797434942360402e-01,6.968121192781483453e-01,7.264089240807052317e-01,7.491735137845292325e-01,7.627821294563298382e-01,7.655487973827090897e-01,7.566056889882920578e-01,7.359989406361786557e-01,7.046999333107172303e-01,6.645320321826029275e-01,6.180127860562951714e-01,5.681115866997602515e-01,5.179227880565352438e-01,4.702542853401142642e-01,4.271315540106590536e-01,3.892171486340261222e-01,3.551456616231242203e-01,3.214060796530677222e-01,2.856441696059052737e-01,2.478577119315898691e-01,2.096011555756645550e-01,1.733555311992681647e-01,1.419878258305222463e-01,1.182998189473018213e-01,1.046663799913849086e-01,1.027632273139860164e-01,1.133841485526691645e-01,1.363476824396450959e-01,1.704932620414473798e-01,2.137668194299920943e-01,2.633958517850183978e-01,3.161539489279103776e-01,3.687147822869018543e-01,4.180955552936609365e-01,4.621899152112565190e-01,5.003903263935098877e-01,5.342999049757222174e-01,5.676384307457088552e-01,6.023480586106859658e-01,6.383707508044004220e-01,6.745523913745024025e-01,7.090932571470369705e-01,7.399340972336796440e-01,7.650778210817135161e-01,7.828467950667520325e-01,7.920757476282008769e-01,7.922402829474678443e-01,7.835210031689113785e-01,7.668032391635349887e-01,7.436123898354237705e-01,7.159848699709244757e-01,6.862746666305676868e-01,6.568955040837338721e-01,6.299986172860636557e-01,6.070861338996091927e-01,5.885600648557276493e-01,5.732069034607232272e-01,5.583351116026014083e-01,5.425553267568062887e-01,5.254227537953234384e-01,5.068882732170409966e-01,4.871890846506681250e-01,4.667516544579350946e-01,4.461069674370713445e-01,4.258180826265601238e-01,4.064199932091743794e-01,3.883717905162884509e-01,3.720211321324704556e-01,3.575810141003520903e-01,3.451188472257762929e-01,3.345578374832250401e-01,3.256906705215241726e-01,3.182055002698270796e-01,3.117242416438774089e-01,3.058531673525496375e-01,3.002458088046682239e-01,2.946781611161052306e-01,2.887156672502009247e-01,2.808863439811260521e-01,2.704344013933113189e-01,2.575259998061405486e-01,2.429623528193312620e-01,2.279280914955986448e-01,2.137748896806038468e-01,2.018403504601870013e-01,1.933021537548820223e-01,1.890674650517177591e-01,1.896976052733021501e-01,1.953679817841905975e-01,2.058632805345377570e-01,2.206079193410340478e-01,2.387317623051262161e-01,2.591710953685216756e-01,2.808048630059752360e-01,3.026261660553639099e-01,3.239490206850414444e-01
5.604666719558576427e-01,5.906936527415671545e-01,6.227267409683427957e-01,6.564784476551797088e-01,6.904099142811307432e-01,7.221286194749187981e-01,7.489005719932979588e-01,7.680769899881689788e-01,7.774354665624438887e-01,7.754356216146658376e-01,7.613892399723760640e-01,7.355448958142383198e-01,6.990870633809090906e-01,6.540497139746656030e-01,6.031443992477802940e-01,5.495028207796500697e-01,4.963338859426775773e-01,4.464952500569023264e-01,4.019793448333867092e-01,3.633138931063475408e-01,3.288769098540475500e-01,2.949391636160807462e-01,2.594861244684644186e-01,2.228649220362362016e-01,1.868273957323201007e-01,1.539215910006779819e-01,1.269721853238016118e-01,1.086498439945508127e-01,1.011295056523310865e-01,1.058375975836173405e-01,1.232881807868168172e-01,1.530080248014790700e-01,1.935506123018453373e-01,2.425990734547418259e-01,2.971580500418176118e-01,3.538344893461223273e-01,4.092073678030297423e-01,4.602863444155015360e-01,5.050593439336944490e-01,5.431290697989147320e-01,5.764384468519081484e-01,6.091055318683092912e-01,6.432307980749807363e-01,6.788302276744684338e-01,7.148072082353906787e-01,7.494012271646853796e-01,7.805729637539059462e-01,8.063257787995607995e-01,8.249636017975042757e-01,8.352852157113705989e-01,8.367149393150592473e-01,8.293697071092630546e-01,8.140625468120480379e-01,7.922424544234765165e-01,7.658706668642805138e-01,7.372333321885797819e-01,7.086905773706494438e-01,6.823619736657328128e-01,6.597483995449040517e-01,6.412903012039725681e-01,6.258623506464423558e-01,6.107548966754647868e-01,5.940237047174860008e-01,5.747284189422279255e-01,5.525372218066820773e-01,5.275879526271974873e-01,5.003621294845919110e-01,4.715718744622844349e-01,4.420597422174487034e-01,4.127114518851910385e-01,3.843815223157472927e-01,3.578318106447039848e-01,3.336829541962409440e-01,3.123787157193945174e-01,2.941632319573453391e-01,2.790711655497248866e-01,2.669307602679469871e-01,2.573797995835593877e-01,2.498944685696184165e-01,2.438311191350842344e-01,2.384809385922398162e-01,2.329409948447259404e-01,2.259536879561698519e-01,2.170177230576889327e-01,2.064044548525114375e-01,1.949023443203797556e-01,1.835940695478702200e-01,1.736662906846300203e-01,1.662520690255326339e-01,1.623059402187481959e-01,1.625116415997334418e-01,1.672224936511381987e-01,1.764344355886285076e-01,1.897917150726274593e-01,2.066252320459738834e-01,2.260235366974977511e-01,2.469364815515127931e-01,2.683115276832254703e-01,2.892627050600646288e-01,3.092722270089244829e-01
